57,58,57,56,57,58,57,56,59,56,57,58,55,59,56,55,59,19,59,54,55,57,59,57,19,59,56,56,56,59,57,57,58,57,58,58,19,54,58,56,59,56,55,55,59,58,56,59,58,55,57,19,19,56,54,59,57,54,57,19,57,54,54,54,57,55,19,19,59,56,57,59,59,57,56,19,54,58,55,55,56,58,59,19,54,59,57,19,56,55,59,59,57,19,54,55,57,59,59,58,57,54,59,54,19,19,58,55,57,19,19,58,57,56,59,54,58,57,55,58,58,59,55,19,19,56,55,57,57,59,58,57,55,55,59,58,54,57,56,57,54,55,57,55,19,19,59,54,54,56,54,59,58,59,59,59,57,55,56,57,58,56,59,58,56,58,56,54,59,58,58,54,55,59,56,59,55,56,57,54,58,58,19,56,56,58,54,57,57,56,59,59,55,58,54,19,19,58,54,59
58,55,56,54,19,57,58,56,55,19,57,55,59,54,19,54,59,56,54,19,57,58,57,54,58,54,19,19,59,56,57,57,56,55,57,55,56,19,59,57,55,56,54,19,56,55,57,19,54,58,56,54,55,55,59,59,54,56,56,54,57,59,56,57,56,54,55,58,57,59,19,57,55,54,55,56,55,56,57,58,19,54,55,56,19,57,54,57,57,57,59,57,59,59,59,54,56,54,58,58,19,19,59,54,57,19,57,59,59,58,57,57,59,57,55,59,19,59,57,19,19,56,59,19,58,19,56,58,19,56,56,55,59,19,55,56,58,57,58,56,54,54,54,58,57,59,55,58,57,59,55,19,19,55,59,59,59,58,54,58,54,56,59,55,57,59,55,59,54,59,56,59,19,58,59,55,55,19,54,19,59,19,54,57,54,54,19,58,58,57,55,19,19,58,55,55,57,57,56,54
59,56,57,54,59,57,55,55,58,56,54,57,56,54,55,55,56,58,59,58,19,57,59,56,59,56,55,59,56,19,56,54,59,58,55,55,19,57,58,57,56,54,56,54,56,59,19,19,55,57,56,56,57,55,56,55,57,19,58,57,54,59,19,57,58,54,56,56,54,59,56,55,58,19,56,57,54,58,19,58,19,56,59,54,55,59,55,19,55,55,58,54,56,19,55,54,58,55,55,55,56,56,55,54,58,58,58,57,56,56,57,54,54,56,56,56,59,57,58,54,59,56,54,55,57,58,19,57,19,54,59,19,56,57,55,19,19,56,59,59,58,57,57,59,58,54,56,58,58,58,58,58,57,54,56,54,57,59,19,57,59,57,19,55,55,57,57,19,57,59,55,54,19,19,55,54,19,58,57,58,54,58,54,58,55,54,58,57,54,54,57,54,58,54,55,59,59,55,56,59
59,55,55,55,54,55,59,56,56,55,56,55,57,19,19,57,59,19,55,57,55,54,54,59,54,57,19,55,19,58,55,57,54,56,55,59,19,57,56,54,58,55,59,57,57,59,55,54,59,57,55,55,59,56,57,57,57,59,57,59,58,55,19,58,56,19,55,56,58,55,56,59,55,55,59,56,19,59,54,58,55,56,58,54,56,54,19,54,19,19,59,59,19,56,54,54,57,19,59,56,54,58,19,55,55,55,58,57,59,55,58,56,57,55,58,57,54,57,19,57,19,56,55,57,19,57,59,55,55,59,57,54,19,59,19,57,59,59,54,19,57,57,57,57,59,55,19,58,59,57,19,54,57,57,54,55,56,59,57,19,58,54,19,56,54,55,59,56,19,19,59,56,56,56,19,56,59,59,56,59,54,56,59,56,58,54,58,58,56,56,57,55,19,54,55,57,59,54,54,54
57,58,59,56,57,54,58,19,58,54,54,57,54,19,56,54,59,19,59,55,19,59,58,57,54,54,56,59,56,58,54,57,56,55,56,59,54,56,59,57,54,59,58,59,19,57,54,56,54,59,57,58,59,54,58,57,54,19,54,19,55,59,57,57,54,56,59,57,55,19,59,57,57,59,19,59,19,57,58,54,58,57,54,54,58,54,59,54,55,59,59,57,19,54,59,54,59,55,58,55,58,56,58,55,57,56,56,54,56,54,56,59,58,59,55,59,58,58,54,57,54,55,57,57,56,56,59,57,55,57,57,56,56,56,57,58,57,19,54,58,54,56,55,57,56,54,59,58,58,58,19,57,58,55,56,54,19,55,56,19,56,54,59,55,55,54,19,54,55,55,59,19,55,58,56,19,58,58,55,57,55,58,57,58,56,55,54,19,56,59,57,58,57,55,55,58,58,54,59,19
58,57,56,56,56,19,59,57,55,54,54,56,58,56,19,54,55,19,19,57,57,58,56,54,57,58,54,19,55,19,19,59,58,59,59,56,59,56,58,58,57,57,55,58,59,56,58,56,56,57,56,57,54,54,55,54,59,56,55,19,58,57,57,58,55,56,59,59,19,56,55,19,58,56,54,57,19,58,19,55,58,57,58,54,59,59,58,55,54,59,57,19,56,54,59,55,55,56,59,57,55,57,54,57,55,57,56,58,19,19,19,59,57,54,58,59,58,55,58,19,58,55,56,57,54,59,54,58,58,58,57,58,57,54,59,54,58,54,59,58,54,57,56,59,56,58,59,57,19,54,57,56,54,56,58,59,56,57,55,57,57,59,19,58,59,57,56,58,59,19,57,57,56,59,59,56,19,58,55,56,58,58,57,55,58,57,57,58,58,55,56,58,57,58,55,54,58,56,59,54
59,19,55,58,19,58,55,54,56,56,59,55,54,58,55,55,58,59,19,58,59,56,59,57,55,57,55,56,19,59,57,55,55,19,57,55,58,54,55,57,58,55,57,59,19,59,55,56,56,58,59,55,58,56,59,57,59,19,55,19,54,54,59,55,55,19,19,57,54,54,19,55,55,58,59,59,59,58,19,56,59,56,55,56,55,54,54,57,59,55,54,19,59,59,55,58,57,59,55,57,59,56,57,19,58,58,55,54,59,58,55,19,56,58,19,56,57,55,58,59,58,59,57,54,19,56,54,55,55,19,56,56,59,55,57,19,57,19,58,55,59,59,54,56,54,56,57,57,55,56,19,54,56,59,55,19,58,58,56,56,56,56,54,59,19,59,56,56,58,57,57,58,58,55,58,58,19,55,57,58,54,55,19,56,58,58,55,58,54,59,55,55,56,19,54,55,19,59,55,19
58,59,56,19,56,55,54,59,54,57,56,56,59,57,19,57,19,59,55,54,57,54,58,56,58,55,54,59,54,54,19,55,56,58,59,19,19,56,57,57,56,56,55,59,57,59,54,56,55,59,56,54,59,56,56,58,54,19,54,54,19,55,59,54,58,56,57,55,59,54,55,19,54,57,54,19,54,19,56,56,55,54,57,55,57,59,59,54,59,57,58,59,59,56,19,56,54,54,55,54,58,56,55,58,54,58,56,54,55,58,19,59,56,58,19,57,19,57,57,55,19,59,55,59,55,55,57,19,59,55,56,56,54,55,55,56,54,59,54,59,59,59,57,54,56,59,58,57,58,56,55,56,56,57,54,55,54,55,55,58,54,54,19,59,56,54,57,58,59,56,57,58,55,57,56,54,57,57,59,57,54,56,54,55,57,58,55,54,54,57,19,57,57,59,58,55,19,54,58,55
59,55,59,58,55,55,58,55,58,56,59,57,54,55,55,54,55,57,55,57,57,54,58,58,57,55,59,54,58,58,59,19,56,57,58,55,55,59,55,57,54,59,57,56,57,54,59,57,55,54,56,54,19,55,59,19,19,19,58,56,57,55,57,55,57,56,58,59,54,19,54,19,19,54,54,59,59,58,54,58,58,19,55,19,54,56,55,56,55,57,54,58,59,19,56,55,57,19,54,59,56,59,57,57,19,59,58,19,54,58,54,56,19,19,56,54,55,56,55,58,59,59,58,56,59,54,56,57,19,54,57,56,55,56,57,58,58,19,56,58,55,58,58,57,54,54,59,19,54,57,19,54,19,59,57,56,57,55,55,59,58,59,58,57,19,56,58,59,58,59,54,57,19,59,58,19,54,58,57,59,57,54,57,56,59,59,58,57,57,54,56,57,59,56,54,58,59,54,54,54
59,57,55,19,56,57,19,58,54,57,56,57,58,19,56,54,57,55,55,55,59,19,55,56,57,56,55,56,58,57,54,55,59,55,58,59,57,59,19,54,55,56,54,57,56,56,59,57,54,56,19,58,58,19,54,58,56,57,57,57,56,56,55,54,54,58,55,19,19,58,59,58,58,54,58,55,55,55,57,58,19,55,56,57,57,19,56,59,57,56,54,54,59,56,58,59,56,58,56,59,54,57,58,56,19,59,54,54,57,54,54,56,55,57,59,55,19,54,55,57,55,57,58,55,54,55,59,57,57,55,59,55,57,59,58,56,19,55,19,56,19,54,54,55,59,58,59,54,58,56,59,55,19,56,58,55,54,57,58,57,56,58,57,55,59,55,55,54,19,54,19,57,59,57,57,55,58,56,57,19,58,55,54,58,54,54,19,54,57,57,54,55,59,19,19,58,57,56,19,19
55,59,58,57,58,58,56,19,57,54,54,19,54,19,54,55,58,55,59,55,56,59,57,58,55,55,58,57,57,59,58,58,19,57,19,58,55,54,57,19,58,59,57,19,54,19,57,19,19,56,19,55,54,58,58,19,19,58,55,54,19,56,59,58,57,19,59,54,56,55,58,19,19,56,56,57,19,57,59,19,19,54,59,56,59,59,59,59,58,54,59,59,55,58,56,58,19,19,54,57,58,57,57,55,58,19,59,58,55,57,19,57,19,57,54,54,55,56,54,59,57,58,58,57,19,59,19,56,58,55,57,56,56,58,55,19,55,55,54,54,19,56,59,55,55,3,4,4,37,37,37,4,5,59,57,57,56,56,55,19,57,55,58,56,19,54,55,56,54,58,59,54,19,59,56,57,19,59,55,58,59,57,59,19,58,54,55,54,56,57,58,57,56,59,59,57,19,55,55,56
57,57,19,57,57,58,56,56,56,55,57,55,59,55,55,58,19,19,19,58,58,58,57,56,54,58,55,56,57,54,57,56,19,55,58,55,56,58,56,57,55,57,58,19,54,55,19,19,54,58,58,56,58,56,54,58,54,57,57,59,57,56,54,19,19,59,3,4,37,37,4,37,37,4,4,5,19,54,54,54,58,57,54,3,4,37,4,37,37,4,37,4,4,37,4,4,5,19,58,58,57,55,54,57,19,57,54,55,19,59,59,54,58,59,19,19,55,54,56,55,59,54,19,19,19,54,56,19,19,54,56,54,54,57,58,19,55,55,57,54,56,3,4,4,37,38,171,173,-1,66,70,17,18,57,57,55,55,56,56,19,55,59,54,59,59,57,57,59,59,59,58,55,58,55,55,54,55,55,19,56,54,59,59,54,54,54,56,59,57,57,56,19,57,59,55,56,55,54,19,57
55,58,54,56,59,58,57,59,54,19,19,55,58,56,19,19,56,59,56,57,19,19,19,55,57,59,19,58,57,56,19,55,58,55,55,55,59,54,57,57,55,57,59,19,58,56,57,57,59,54,59,55,58,54,57,56,57,59,57,19,58,54,3,4,37,4,38,-1,-1,-1,-1,-1,-1,-1,-1,81,46,82,82,46,82,82,82,47,-1,-1,-1,-1,-1,-1,-1,-1,-1,-1,-1,-1,36,37,4,37,37,37,37,37,4,4,4,4,37,4,37,4,4,5,57,59,19,56,56,54,56,54,59,56,58,54,54,19,55,55,56,54,58,58,55,58,58,54,59,3,37,38,171,211,173,171,212,192,-1,87,34,89,36,37,5,57,57,55,56,59,57,59,56,57,19,58,54,55,55,56,58,57,55,57,56,59,19,54,59,58,55,59,57,57,59,58,56,55,55,19,58,57,56,58,54,58,55,57,58,56
19,57,56,57,54,55,54,54,57,57,58,59,54,54,55,19,59,59,19,58,54,58,54,59,55,59,55,57,19,19,57,59,57,59,59,57,59,56,56,57,56,57,57,54,59,59,59,57,55,56,58,57,54,19,54,59,55,54,54,54,59,3,38,-1,-1,-1,-1,-1,-1,-1,-1,-1,-1,-1,-1,84,85,85,88,88,34,34,88,35,-1,-1,-1,-1,-1,-1,-1,-1,-1,-1,-1,-1,-1,-1,-1,-1,-1,-1,-1,-1,-1,-1,-1,-1,-1,-1,-1,-1,-1,36,37,5,54,55,57,59,59,19,19,54,58,58,19,59,59,57,55,55,57,19,58,59,58,3,4,38,171,211,212,154,192,207,176,191,-1,33,31,86,-1,-1,36,5,57,58,55,58,59,54,59,56,54,57,57,19,55,54,59,58,19,55,55,55,58,57,54,57,54,19,55,58,54,19,58,56,54,55,58,59,56,54,58,19,57,55,54,59
55,54,58,56,58,56,59,58,58,57,19,56,57,57,19,55,59,59,56,19,55,58,55,55,58,58,55,59,59,54,54,55,59,59,19,57,54,19,55,54,56,56,19,55,54,59,57,55,54,55,19,59,57,55,59,19,56,58,57,54,3,38,-1,-1,-1,-1,-1,-1,-1,-1,-1,-1,-1,-1,-1,51,103,103,49,106,49,49,49,104,-1,-1,-1,-1,-1,-1,-1,-1,-1,-1,-1,-1,-1,-1,-1,-1,-1,-1,-1,-1,-1,-1,-1,-1,-1,-1,-1,-1,-1,-1,-1,18,59,58,57,19,55,55,19,3,37,5,19,58,19,57,54,58,56,59,57,3,4,38,171,172,212,153,154,190,210,173,194,191,-1,30,31,89,-1,-1,-1,23,56,59,54,54,54,58,54,59,59,54,57,59,54,57,55,55,59,55,57,57,54,19,57,57,59,55,58,55,57,56,205,204,57,54,19,55,54,55,58,3,5,57,19,19
58,59,55,56,58,55,54,58,59,19,56,19,55,59,54,57,56,19,54,56,56,58,56,59,56,57,58,59,54,56,19,55,19,59,58,55,54,19,19,57,57,59,56,55,19,55,54,56,19,56,58,54,58,58,57,19,56,19,54,3,38,-1,-1,-1,-1,-1,-1,-1,-1,-1,-1,-1,-1,-1,-1,15,67,13,16,67,13,70,16,71,-1,-1,-1,-1,-1,-1,-1,-1,-1,-1,-1,-1,-1,-1,-1,-1,-1,-1,-1,-1,-1,-1,-1,-1,-1,-1,-1,-1,-1,-1,-1,45,82,46,46,46,82,46,46,83,-1,23,57,55,19,19,19,19,59,58,57,20,171,211,212,155,154,190,190,155,174,209,207,209,-1,84,85,35,-1,-1,-1,18,55,19,57,57,56,55,54,55,59,59,58,56,55,54,54,57,19,19,56,57,57,58,19,58,56,3,5,205,200,200,239,234,55,56,55,59,58,59,205,218,18,56,57,19
54,55,19,19,58,19,54,55,58,19,57,56,55,55,59,56,19,55,57,57,54,57,58,55,56,58,56,59,59,55,19,57,54,19,59,54,58,54,54,58,58,19,56,55,57,59,57,57,19,58,19,57,59,57,54,59,56,3,37,38,-1,-1,-1,-1,-1,-1,-1,-1,-1,-1,-1,-1,-1,-1,-1,87,34,85,88,31,85,31,85,86,-1,-1,-1,-1,-1,-1,-1,-1,-1,-1,-1,-1,-1,-1,-1,-1,-1,-1,-1,-1,-1,-1,-1,-1,-1,-1,-1,-1,-1,-1,-1,84,31,88,85,31,85,34,34,35,-1,18,56,59,54,54,57,19,56,57,55,20,194,155,190,154,155,190,190,190,210,173,-1,-1,-1,99,64,101,-1,-1,-1,36,5,57,58,19,58,59,58,59,57,54,56,19,54,58,59,54,57,58,59,59,58,19,54,55,58,21,36,238,127,128,180,203,204,57,54,19,54,54,236,92,36,5,57,55
57,58,57,55,54,55,54,57,58,19,19,19,54,59,56,56,55,55,55,59,55,56,57,19,57,55,56,55,58,54,59,56,59,19,57,57,56,59,56,54,19,56,57,57,55,59,19,56,58,19,59,56,59,56,59,3,4,38,-1,-1,-1,-1,-1,-1,-1,-1,-1,-1,-1,-1,-1,-1,-1,-1,-1,105,52,49,106,52,106,49,49,107,-1,-1,-1,-1,-1,-1,-1,-1,-1,-1,-1,-1,-1,-1,-1,-1,-1,-1,-1,-1,-1,-1,-1,-1,-1,-1,-1,-1,-1,-1,-1,48,103,106,106,49,49,103,103,53,-1,18,55,56,19,59,19,19,58,59,3,38,189,155,155,153,153,154,153,155,190,191,-1,-1,-1,81,82,83,-1,-1,-1,-1,23,57,55,19,58,58,55,59,55,56,54,19,54,57,19,57,57,55,19,55,59,57,59,54,3,38,-1,72,163,164,180,91,203,200,204,54,19,58,236,144,-1,18,57,57
58,59,58,55,54,56,55,59,57,54,54,57,58,54,19,59,54,54,55,55,59,58,58,55,54,58,55,58,57,19,57,19,19,59,57,54,57,54,54,57,57,59,19,58,57,57,55,56,59,55,58,59,54,3,37,38,-1,-1,-1,-1,-1,-1,-1,-1,-1,-1,-1,-1,-1,-1,-1,-1,-1,-1,-1,12,16,16,70,70,67,70,67,71,-1,-1,-1,-1,-1,-1,-1,-1,-1,-1,-1,-1,-1,-1,-1,-1,-1,-1,-1,-1,-1,-1,-1,-1,-1,-1,-1,-1,-1,-1,-1,69,70,70,13,13,67,67,67,17,-1,23,54,57,19,59,54,59,57,19,21,171,212,154,155,155,155,155,190,174,176,192,-1,-1,-1,30,31,32,-1,-1,-1,-1,23,57,57,19,54,58,55,59,56,19,57,19,56,59,59,56,57,56,19,3,37,4,4,37,38,-1,72,164,181,126,109,109,127,128,203,200,200,200,239,144,-1,18,55,54
56,55,55,58,59,55,57,57,58,58,59,58,55,55,57,59,54,55,58,58,55,19,19,59,56,54,19,55,19,57,59,58,56,54,56,59,57,59,57,19,19,55,58,19,59,57,56,55,55,54,56,54,3,38,-1,-1,-1,-1,-1,-1,-1,-1,-1,-1,-1,-1,-1,-1,-1,-1,-1,-1,-1,-1,-1,87,34,88,31,34,34,85,85,32,-1,-1,-1,-1,-1,-1,-1,-1,-1,-1,-1,-1,-1,-1,-1,-1,-1,-1,-1,-1,-1,-1,-1,-1,-1,-1,-1,-1,-1,-1,-1,84,34,31,88,88,31,31,88,89,-1,23,54,58,57,56,55,55,58,19,21,189,153,155,153,190,190,190,155,192,194,191,-1,-1,-1,84,88,32,-1,-1,-1,-1,36,5,57,55,56,57,58,19,54,55,58,58,57,57,59,59,56,54,3,38,-1,-1,-1,-1,-1,-1,146,91,182,162,163,73,74,146,180,180,126,109,127,110,-1,18,57,59
19,56,54,55,56,55,55,58,59,59,19,58,59,57,55,57,59,19,57,19,54,54,59,57,54,56,57,19,58,58,55,59,59,19,59,57,56,57,58,59,55,59,19,57,19,57,54,57,55,57,56,56,39,2,-1,-1,-1,-1,-1,-1,-1,-1,-1,-1,-1,-1,-1,-1,-1,-1,-1,-1,-1,-1,-1,51,103,103,103,49,49,106,103,107,-1,-1,-1,-1,-1,-1,-1,-1,-1,-1,-1,-1,-1,-1,-1,-1,-1,-1,-1,-1,-1,-1,-1,-1,-1,-1,-1,-1,-1,-1,-1,48,52,52,106,103,52,106,103,104,-1,23,57,57,54,55,56,54,58,57,21,189,190,153,155,154,190,174,208,209,194,191,-1,-1,-1,84,31,86,-1,-1,-1,-1,-1,36,5,57,57,19,58,57,54,58,56,55,57,57,58,58,55,57,21,-1,-1,171,173,72,73,73,164,91,182,180,181,182,144,146,182,180,92,-1,-1,-1,-1,23,19,56
57,58,57,54,57,59,58,54,56,54,59,58,59,56,55,54,58,54,58,59,54,58,56,57,55,58,57,54,55,58,57,59,59,19,58,55,54,19,56,57,56,54,56,57,59,57,59,57,54,58,59,19,58,21,-1,-1,-1,-1,-1,-1,-1,-1,-1,-1,-1,-1,-1,-1,-1,-1,-1,-1,-1,-1,-1,15,67,13,67,70,16,67,70,68,-1,-1,-1,-1,-1,-1,-1,-1,-1,-1,-1,-1,-1,-1,-1,-1,-1,-1,-1,-1,-1,-1,-1,-1,-1,-1,-1,-1,-1,-1,-1,69,16,67,16,67,67,67,67,71,-1,23,58,54,56,57,56,19,56,59,21,189,154,155,153,155,190,210,173,-1,207,209,-1,-1,-1,33,85,32,-1,-1,-1,-1,-1,-1,23,57,58,19,19,55,56,54,59,55,56,59,55,55,59,56,21,-1,-1,194,191,146,91,181,180,126,128,182,181,126,110,146,180,126,110,-1,-1,0,40,41,57,59
54,54,55,56,56,58,54,58,19,54,59,54,19,54,57,56,54,59,54,58,55,58,58,56,59,57,57,54,56,57,55,55,55,58,57,59,54,59,57,54,59,19,55,56,56,57,57,57,57,58,54,3,37,38,-1,-1,-1,-1,-1,-1,-1,-1,-1,-1,-1,-1,-1,-1,-1,-1,-1,-1,-1,-1,-1,87,31,34,88,34,34,88,88,35,-1,-1,-1,-1,-1,-1,-1,-1,-1,-1,-1,-1,-1,-1,-1,-1,-1,-1,-1,-1,-1,-1,-1,-1,-1,-1,-1,-1,-1,-1,-1,84,88,88,88,85,34,85,34,86,-1,18,56,19,56,56,59,55,54,54,20,194,154,190,190,174,175,208,209,-1,-1,-1,-1,-1,-1,87,34,89,-1,-1,-1,-1,-1,-1,36,5,56,56,19,58,57,55,55,55,55,56,54,19,58,3,38,-1,171,212,192,108,109,109,109,110,146,91,181,144,72,164,126,110,-1,-1,-1,18,19,57,57,59
59,55,56,54,19,19,59,57,19,54,19,19,59,54,19,57,59,59,58,57,55,59,58,57,56,59,54,55,56,19,57,54,54,57,55,56,56,19,57,19,56,59,54,55,57,55,57,58,3,4,37,38,-1,-1,-1,-1,-1,-1,-1,-1,-1,-1,-1,-1,-1,-1,-1,-1,-1,-1,-1,-1,-1,-1,-1,51,103,106,103,103,49,52,52,53,-1,-1,-1,-1,-1,-1,-1,-1,-1,-1,-1,-1,-1,-1,-1,-1,-1,-1,-1,-1,-1,-1,-1,-1,-1,-1,-1,-1,-1,-1,-1,105,106,52,103,52,103,49,52,50,-1,23,56,54,57,58,59,57,54,58,20,194,190,190,174,209,-1,-1,-1,-1,-1,-1,-1,-1,-1,87,88,86,-1,-1,-1,-1,-1,-1,-1,36,37,4,37,37,4,37,5,55,19,55,55,3,4,38,-1,-1,207,175,209,72,73,73,163,74,108,128,182,92,146,181,144,-1,-1,-1,0,41,58,56,59,55
55,57,56,54,58,57,54,59,57,57,55,54,59,57,19,58,57,56,56,58,54,58,19,59,19,55,57,58,59,56,59,58,54,59,58,54,55,54,56,55,59,57,19,56,19,58,3,4,38,-1,-1,-1,-1,-1,-1,-1,-1,-1,-1,-1,-1,-1,-1,-1,-1,-1,-1,-1,-1,-1,-1,-1,-1,-1,-1,66,13,16,16,13,70,13,16,14,-1,-1,-1,-1,-1,-1,-1,-1,-1,-1,-1,-1,-1,-1,-1,-1,-1,-1,-1,-1,-1,-1,-1,-1,-1,-1,-1,-1,-1,-1,-1,15,13,67,70,16,67,16,67,17,-1,23,55,55,57,57,19,55,59,54,20,207,176,154,191,-1,-1,171,173,171,211,173,-1,-1,-1,63,100,65,-1,-1,-1,-1,-1,-1,-1,-1,-1,-1,-1,-1,-1,-1,23,56,58,54,19,21,-1,-1,-1,72,73,163,74,90,91,182,180,144,-1,90,182,92,108,127,110,-1,-1,-1,18,54,55,58,19,57
59,54,55,59,54,57,57,55,57,58,57,56,58,55,55,55,59,54,58,55,56,19,59,56,58,55,19,19,56,56,54,19,58,59,58,19,56,56,19,58,55,56,55,54,19,3,38,-1,-1,-1,-1,-1,-1,-1,-1,-1,-1,-1,-1,-1,-1,-1,-1,-1,-1,-1,-1,-1,-1,-1,-1,-1,-1,-1,-1,84,34,31,85,34,85,88,34,32,-1,-1,-1,-1,-1,-1,-1,-1,-1,-1,-1,-1,-1,-1,-1,-1,-1,-1,-1,-1,-1,-1,-1,-1,-1,-1,-1,-1,-1,-1,-1,33,31,85,34,85,34,85,34,86,-1,23,58,59,56,56,19,19,59,3,38,171,212,174,209,-1,171,212,210,212,155,192,-1,-1,-1,9,10,11,-1,-1,-1,-1,-1,-1,-1,-1,-1,-1,-1,72,74,-1,18,54,19,19,57,39,2,-1,-1,90,182,181,162,164,181,126,109,110,-1,90,181,144,-1,-1,-1,-1,-1,-1,36,4,4,5,57,54
57,58,19,19,19,58,19,58,58,57,59,59,54,55,55,59,56,59,55,57,57,59,59,55,58,54,56,56,55,56,57,58,55,55,59,56,54,19,57,56,54,54,3,37,37,38,-1,-1,-1,-1,-1,-1,-1,-1,-1,-1,-1,-1,-1,-1,-1,-1,-1,-1,-1,-1,-1,-1,-1,-1,-1,-1,-1,-1,-1,48,49,52,103,103,103,106,103,53,-1,-1,-1,-1,-1,-1,-1,-1,-1,-1,-1,-1,-1,-1,-1,-1,-1,-1,-1,-1,-1,-1,-1,-1,-1,-1,-1,-1,-1,-1,-1,51,52,106,103,103,52,52,103,104,-1,36,5,54,57,55,57,59,54,21,171,212,190,192,-1,-1,194,190,154,154,174,209,-1,-1,-1,-1,-1,-1,-1,-1,-1,-1,-1,-1,-1,-1,-1,-1,72,164,92,-1,36,5,58,59,57,56,20,-1,-1,108,128,181,181,91,181,162,74,-1,-1,90,181,144,-1,-1,-1,72,74,-1,-1,171,173,216,200,204
59,54,19,58,57,59,55,54,56,58,19,19,56,59,57,55,54,57,59,58,54,56,54,59,19,19,19,19,58,58,19,19,19,58,19,19,54,57,19,19,57,55,21,-1,-1,-1,-1,-1,-1,-1,-1,-1,-1,-1,-1,-1,-1,-1,-1,-1,-1,-1,-1,-1,-1,-1,-1,-1,-1,-1,-1,-1,-1,-1,-1,12,67,67,67,70,70,70,70,17,-1,-1,-1,-1,-1,-1,-1,-1,-1,-1,-1,-1,-1,-1,-1,-1,-1,-1,-1,-1,-1,-1,-1,-1,-1,-1,-1,-1,-1,-1,-1,12,16,16,13,13,13,16,70,71,-1,-1,36,4,37,4,37,4,4,38,194,153,174,209,-1,171,212,174,176,154,191,-1,-1,-1,-1,-1,-1,-1,-1,-1,-1,-1,-1,-1,-1,171,211,173,146,180,144,-1,-1,36,37,4,4,37,38,-1,-1,72,164,91,181,91,182,181,144,-1,72,164,91,92,-1,-1,72,164,162,74,-1,207,209,108,128,203
58,56,57,58,19,59,58,56,55,56,19,58,54,19,19,59,58,55,56,57,58,57,57,55,57,59,55,59,54,57,54,58,59,57,19,19,54,58,19,19,19,3,38,-1,-1,-1,-1,-1,-1,-1,-1,-1,-1,-1,-1,-1,-1,-1,-1,-1,-1,-1,-1,-1,-1,-1,-1,-1,-1,-1,-1,-1,-1,-1,-1,84,85,31,31,88,34,34,85,35,-1,-1,-1,-1,-1,-1,-1,-1,-1,-1,-1,-1,-1,-1,-1,-1,-1,-1,-1,-1,-1,-1,-1,-1,-1,-1,-1,-1,-1,-1,-1,30,85,85,85,88,85,88,88,86,-1,-1,171,172,172,211,211,172,172,173,194,174,209,-1,-1,189,154,192,189,153,191,-1,-1,-1,-1,-1,-1,-1,-1,-1,-1,-1,-1,-1,-1,189,174,209,108,109,110,-1,-1,-1,171,211,173,-1,-1,-1,-1,146,180,180,181,91,182,182,92,-1,90,91,182,144,-1,-1,108,127,127,110,-1,-1,-1,-1,90,126
59,56,59,54,59,54,56,54,57,19,56,54,59,59,55,56,57,19,56,55,59,19,59,59,19,57,57,58,54,19,58,55,19,19,19,19,19,19,19,82,82,83,-1,-1,-1,-1,-1,-1,-1,-1,-1,-1,-1,-1,-1,-1,-1,-1,-1,-1,-1,-1,-1,-1,-1,-1,-1,-1,-1,-1,-1,-1,-1,-1,-1,48,52,106,103,52,106,106,49,53,-1,-1,-1,-1,-1,-1,-1,-1,-1,-1,-1,-1,-1,-1,-1,-1,-1,-1,-1,-1,-1,-1,-1,-1,-1,-1,-1,-1,-1,-1,-1,102,103,106,106,49,52,106,106,104,-1,-1,207,208,176,153,154,174,176,210,212,191,-1,-1,-1,194,190,191,189,153,192,-1,-1,-1,-1,-1,-1,-1,-1,-1,-1,-1,-1,-1,171,212,192,72,163,163,74,72,74,-1,207,176,192,-1,-1,-1,-1,146,182,180,182,182,182,180,92,-1,108,127,109,110,-1,-1,-1,-1,-1,-1,-1,-1,-1,-1,108,110
59,54,57,54,58,57,59,19,54,59,57,56,54,58,55,55,58,58,56,59,54,55,58,58,54,59,58,54,56,56,58,56,57,54,58,58,19,118,118,85,85,32,-1,-1,-1,-1,-1,-1,-1,-1,-1,-1,-1,-1,-1,-1,-1,-1,-1,-1,-1,-1,-1,-1,-1,-1,-1,-1,-1,-1,-1,-1,-1,-1,-1,69,70,67,70,13,67,13,13,68,-1,-1,-1,-1,-1,-1,-1,-1,-1,-1,-1,-1,-1,-1,-1,-1,-1,-1,-1,-1,-1,-1,-1,-1,-1,-1,-1,-1,-1,-1,-1,15,70,70,67,16,13,16,13,17,-1,-1,-1,171,212,190,153,210,212,174,175,209,-1,-1,-1,207,176,192,194,153,192,-1,-1,-1,-1,-1,-1,-1,-1,-1,-1,-1,171,173,194,154,191,146,182,182,144,108,110,-1,-1,207,209,-1,72,163,74,108,128,91,182,182,182,91,144,-1,-1,-1,-1,-1,-1,72,73,73,163,163,163,74,-1,-1,-1,-1
58,59,56,54,56,57,54,57,59,57,19,19,59,57,59,58,59,57,59,54,55,59,55,57,55,54,59,59,58,54,55,3,37,5,59,58,55,118,118,64,64,65,-1,-1,-1,-1,-1,-1,-1,-1,-1,-1,-1,-1,-1,-1,-1,-1,-1,-1,-1,-1,-1,-1,-1,-1,-1,-1,-1,-1,-1,-1,-1,-1,-1,87,31,85,31,88,34,31,88,86,-1,-1,-1,-1,-1,-1,-1,-1,-1,-1,-1,-1,-1,-1,-1,-1,-1,-1,-1,-1,-1,-1,-1,-1,-1,-1,-1,-1,-1,-1,-1,33,88,85,31,31,88,34,34,35,-1,-1,-1,207,175,176,154,174,208,209,-1,-1,171,173,-1,-1,194,210,212,174,209,-1,-1,-1,-1,-1,-1,-1,-1,-1,-1,-1,207,209,189,174,209,90,180,126,110,72,74,-1,-1,-1,-1,-1,146,181,92,72,164,182,181,126,109,109,110,-1,-1,0,40,2,-1,108,128,181,180,181,91,92,-1,-1,-1,-1
59,54,59,55,58,56,56,55,59,54,57,54,58,54,58,59,19,57,59,59,57,54,54,57,55,19,55,59,55,59,3,38,-1,45,46,46,46,46,82,46,82,47,-1,-1,-1,-1,-1,-1,-1,-1,-1,-1,-1,-1,-1,-1,-1,-1,-1,-1,-1,-1,-1,-1,-1,-1,-1,-1,-1,-1,-1,-1,-1,-1,-1,48,52,52,49,52,52,52,52,50,-1,-1,-1,-1,-1,-1,-1,-1,-1,-1,-1,-1,-1,-1,-1,-1,-1,-1,-1,-1,-1,-1,-1,-1,-1,-1,-1,-1,-1,-1,-1,51,52,106,49,52,106,52,103,53,-1,-1,-1,171,211,212,174,209,-1,-1,-1,171,212,191,-1,-1,189,154,154,192,-1,-1,-1,-1,-1,-1,-1,-1,-1,-1,-1,-1,171,211,212,191,72,164,182,162,74,146,92,-1,-1,-1,-1,-1,90,181,162,164,180,181,181,144,-1,-1,-1,-1,0,41,59,20,-1,-1,108,128,91,180,180,162,163,74,-1,-1
56,56,19,56,58,19,54,58,19,57,19,56,56,54,55,56,59,58,19,55,58,19,54,56,58,58,55,54,57,55,20,-1,-1,30,85,34,34,85,88,34,34,32,-1,-1,-1,-1,-1,-1,-1,-1,-1,-1,-1,-1,-1,-1,-1,-1,-1,-1,-1,-1,-1,-1,-1,-1,-1,-1,-1,-1,-1,-1,-1,-1,-1,15,67,13,70,13,67,67,67,68,-1,-1,-1,-1,-1,-1,-1,-1,-1,-1,-1,-1,-1,-1,-1,-1,-1,-1,-1,-1,-1,-1,-1,-1,-1,-1,-1,-1,-1,-1,-1,15,16,16,70,16,67,16,16,71,-1,-1,171,212,174,176,191,-1,171,211,211,212,154,191,-1,-1,207,176,174,209,-1,-1,-1,-1,-1,-1,-1,-1,-1,-1,-1,-1,194,174,175,209,146,180,180,181,92,146,144,72,74,-1,-1,-1,146,91,180,182,182,126,127,110,-1,-1,0,1,41,57,58,39,2,-1,-1,108,128,91,91,181,182,144,-1,-1
59,55,57,57,54,54,58,55,54,55,19,54,54,59,56,56,54,54,58,55,56,54,57,55,55,55,55,54,56,19,20,-1,-1,48,52,52,103,103,103,49,49,53,-1,-1,-1,-1,-1,-1,-1,-1,-1,-1,-1,-1,-1,-1,-1,-1,-1,-1,-1,-1,-1,-1,-1,-1,-1,-1,-1,-1,-1,-1,-1,-1,-1,30,34,34,85,34,31,34,31,32,-1,-1,-1,-1,-1,-1,-1,-1,-1,-1,-1,-1,-1,-1,-1,-1,-1,-1,-1,-1,-1,-1,-1,-1,-1,-1,-1,-1,-1,-1,-1,87,88,34,85,88,88,31,31,35,-1,-1,207,208,209,207,209,-1,189,154,190,155,155,210,173,-1,-1,189,191,-1,-1,-1,171,173,-1,-1,-1,-1,-1,-1,-1,171,212,192,72,163,164,126,127,109,110,146,144,108,110,171,173,-1,108,109,128,181,126,110,171,173,-1,-1,23,55,56,59,56,57,39,2,-1,-1,108,109,109,128,180,162,74,-1
59,58,59,58,58,56,54,54,19,54,55,58,19,55,55,19,57,55,19,58,54,59,55,58,55,54,57,19,59,3,38,-1,-1,66,67,16,70,67,70,13,16,68,-1,-1,-1,-1,-1,-1,-1,-1,-1,-1,-1,-1,-1,-1,-1,-1,-1,-1,-1,-1,-1,-1,-1,-1,-1,-1,-1,-1,-1,-1,-1,-1,-1,51,52,103,103,103,103,103,52,50,-1,-1,-1,-1,-1,-1,-1,-1,-1,-1,-1,-1,-1,-1,-1,-1,-1,-1,-1,-1,-1,-1,-1,-1,-1,-1,-1,-1,-1,-1,-1,105,52,103,52,49,103,49,106,53,-1,-1,-1,-1,-1,-1,-1,-1,189,155,190,153,190,174,209,-1,-1,194,210,173,-1,171,212,191,-1,-1,-1,-1,-1,171,173,194,155,191,90,181,181,92,72,73,74,146,162,163,74,194,192,-1,-1,-1,146,180,144,171,212,192,-1,0,41,19,59,19,58,54,57,39,2,-1,-1,-1,-1,146,180,91,162,163
19,19,57,54,57,55,56,19,56,57,57,57,54,59,57,58,19,57,57,59,54,55,59,59,54,54,56,55,3,38,-1,-1,-1,33,34,88,88,88,34,34,85,32,-1,-1,-1,-1,-1,-1,-1,-1,-1,-1,-1,-1,-1,-1,-1,-1,-1,-1,-1,-1,-1,-1,-1,-1,-1,-1,-1,-1,-1,-1,-1,-1,-1,69,70,67,70,70,67,16,16,68,-1,-1,-1,-1,-1,-1,-1,-1,-1,-1,-1,-1,-1,-1,-1,-1,-1,-1,-1,-1,-1,-1,-1,-1,-1,-1,-1,-1,-1,-1,-1,12,13,67,70,70,67,67,13,68,-1,-1,171,211,172,172,211,172,212,190,154,153,190,210,172,173,-1,207,208,209,-1,189,174,209,-1,-1,-1,-1,-1,207,209,207,208,209,108,109,127,110,146,91,144,108,127,109,110,207,209,-1,72,73,164,181,144,207,175,209,-1,23,58,55,19,56,55,56,57,57,39,1,1,2,-1,90,181,91,180,91
56,56,57,19,55,56,58,55,58,55,59,58,58,59,55,54,56,57,54,19,59,59,57,55,56,55,56,54,20,-1,-1,-1,-1,51,52,49,103,52,52,106,49,104,-1,-1,-1,-1,-1,-1,-1,-1,-1,-1,-1,-1,-1,-1,-1,-1,-1,-1,-1,-1,-1,-1,-1,-1,-1,-1,-1,-1,-1,-1,-1,-1,-1,30,88,31,88,34,31,31,34,89,-1,-1,-1,-1,-1,-1,-1,-1,-1,-1,-1,-1,-1,-1,-1,-1,-1,-1,-1,-1,-1,-1,-1,-1,-1,-1,-1,-1,-1,-1,-1,87,34,88,34,88,85,34,34,35,-1,-1,189,154,153,154,154,155,190,154,155,174,176,153,155,192,-1,-1,-1,-1,-1,194,192,-1,-1,27,28,29,-1,72,74,-1,72,163,74,72,163,73,164,180,92,72,73,74,72,74,-1,-1,146,182,180,126,110,-1,-1,-1,-1,23,56,59,56,55,56,58,54,58,55,56,59,20,-1,108,127,109,127,109
58,59,59,19,56,58,56,59,54,56,54,56,58,57,19,55,54,55,19,58,59,19,54,56,57,58,19,19,20,-1,-1,-1,-1,15,70,16,67,70,16,13,70,14,-1,-1,-1,-1,-1,-1,-1,-1,-1,-1,-1,-1,-1,-1,-1,-1,-1,-1,-1,-1,-1,-1,-1,-1,-1,-1,-1,-1,-1,-1,-1,-1,-1,48,52,103,49,52,103,49,52,107,-1,-1,-1,-1,-1,-1,-1,-1,-1,-1,-1,-1,-1,-1,-1,-1,-1,-1,-1,-1,-1,-1,-1,-1,-1,-1,-1,-1,-1,-1,-1,48,106,52,103,103,103,49,103,53,-1,171,212,174,176,154,153,153,155,154,153,192,189,153,153,210,211,173,-1,-1,171,212,210,173,-1,81,82,83,-1,108,110,72,164,182,144,146,91,91,91,180,92,146,126,110,108,110,-1,-1,108,127,109,110,-1,-1,171,173,0,41,58,54,55,56,56,19,19,57,59,19,57,39,1,40,40,1,1,232
56,55,58,57,58,57,58,54,55,19,54,57,54,59,55,55,56,59,56,56,58,57,56,58,54,55,19,3,38,-1,-1,-1,-1,30,85,88,85,88,88,31,34,32,-1,-1,-1,-1,-1,-1,-1,-1,-1,-1,-1,-1,-1,-1,-1,-1,-1,-1,-1,-1,-1,-1,-1,-1,-1,-1,-1,-1,-1,-1,-1,-1,-1,15,13,16,67,67,16,13,70,14,-1,-1,-1,-1,-1,-1,-1,-1,-1,-1,-1,-1,-1,-1,-1,-1,-1,-1,-1,-1,-1,-1,-1,-1,-1,-1,-1,-1,-1,-1,-1,12,70,70,16,67,70,16,13,71,-1,194,174,209,189,153,154,153,153,174,175,209,194,155,153,190,155,210,172,173,189,174,176,210,173,87,88,86,-1,72,74,108,127,109,110,90,181,182,181,180,144,108,110,72,73,74,-1,-1,-1,-1,-1,-1,-1,-1,207,209,18,54,57,59,19,56,59,57,55,54,19,19,54,59,59,54,59,55,59,228
56,19,59,57,59,19,54,57,56,55,58,59,55,56,59,55,57,54,58,58,59,56,54,54,58,58,59,21,-1,-1,-1,-1,-1,105,106,49,49,106,103,49,52,50,-1,-1,-1,-1,-1,-1,-1,-1,-1,-1,-1,-1,-1,-1,-1,-1,-1,-1,-1,-1,-1,-1,-1,-1,-1,-1,-1,-1,-1,-1,-1,-1,-1,84,85,31,88,88,31,31,88,89,-1,-1,-1,-1,-1,-1,-1,-1,-1,-1,-1,-1,-1,-1,-1,-1,-1,-1,-1,-1,-1,-1,-1,-1,-1,-1,-1,-1,-1,-1,-1,33,31,31,85,34,34,85,88,35,-1,207,209,171,212,174,176,174,176,210,211,211,212,190,155,153,154,153,154,210,212,210,212,153,192,30,88,89,-1,90,162,74,72,74,72,164,180,180,180,182,162,73,74,90,181,144,171,211,173,-1,-1,-1,-1,-1,0,40,41,56,19,57,57,55,59,54,59,54,54,19,55,56,57,55,19,56,177,269
19,19,57,19,58,58,54,55,56,58,56,58,56,58,54,56,56,19,56,58,59,56,59,19,59,19,3,38,-1,-1,-1,-1,-1,12,70,13,16,67,13,70,70,17,-1,-1,-1,-1,-1,-1,-1,-1,-1,-1,-1,-1,-1,-1,-1,-1,-1,-1,-1,-1,-1,-1,-1,-1,-1,-1,-1,-1,-1,-1,-1,-1,-1,102,49,106,106,49,52,106,49,104,-1,-1,-1,-1,-1,-1,-1,-1,-1,-1,-1,-1,-1,-1,-1,-1,-1,-1,-1,-1,-1,-1,-1,-1,-1,-1,-1,-1,-1,-1,-1,51,49,52,106,106,106,52,106,104,-1,171,211,212,210,173,194,210,212,154,154,155,154,154,155,153,153,155,154,155,190,174,208,176,191,33,85,89,-1,108,109,110,108,110,90,91,181,181,180,181,180,180,92,108,109,110,207,176,210,173,-1,-1,-1,0,41,56,55,57,59,55,56,55,56,177,179,57,56,54,55,54,57,56,59,56,228,308
55,59,19,19,56,58,58,58,55,58,56,54,54,57,56,55,56,57,59,59,57,19,54,19,55,57,20,-1,-1,-1,-1,-1,-1,33,88,85,85,88,85,34,34,89,-1,-1,-1,-1,-1,-1,-1,-1,-1,-1,-1,-1,-1,-1,-1,-1,-1,-1,-1,-1,-1,-1,-1,-1,-1,-1,-1,-1,-1,-1,-1,-1,-1,12,67,13,70,70,67,70,70,17,-1,-1,-1,-1,-1,-1,-1,-1,-1,-1,-1,-1,-1,-1,-1,-1,-1,-1,-1,-1,-1,-1,-1,-1,-1,-1,-1,-1,-1,-1,-1,69,70,16,70,70,13,13,70,17,171,212,153,190,155,192,207,176,190,190,174,208,176,153,154,155,153,154,190,155,153,210,173,189,192,33,34,86,72,163,74,72,163,74,146,181,180,182,180,91,180,91,162,163,199,40,2,207,175,209,-1,252,178,41,54,177,179,57,54,57,19,59,59,213,215,55,56,59,54,59,177,179,177,179,228,308
58,57,57,58,59,56,59,59,56,54,57,58,59,56,58,59,57,54,56,57,59,54,58,19,19,55,20,-1,-1,-1,-1,-1,-1,105,103,49,106,106,49,106,52,53,-1,-1,-1,-1,-1,-1,-1,-1,-1,-1,-1,-1,-1,-1,-1,-1,-1,-1,-1,-1,-1,-1,-1,-1,-1,-1,-1,-1,-1,-1,-1,-1,-1,87,31,85,34,31,88,34,85,89,-1,-1,-1,-1,-1,-1,-1,-1,-1,-1,-1,-1,-1,-1,-1,-1,-1,-1,-1,-1,-1,-1,-1,-1,-1,-1,-1,-1,-1,-1,-1,84,34,34,34,85,88,34,85,35,194,155,153,155,153,210,173,194,190,155,210,211,212,154,190,190,154,190,153,154,153,190,210,212,191,33,85,86,146,182,144,108,109,110,219,198,198,198,198,201,182,91,180,182,234,57,21,258,259,259,260,270,229,56,58,228,229,54,56,55,56,56,58,177,179,58,58,57,19,177,269,267,269,267,269,308
56,59,58,57,55,55,57,19,54,57,58,56,55,57,54,19,57,58,19,54,54,54,55,55,56,3,38,-1,-1,-1,-1,-1,-1,69,70,70,67,67,67,16,70,68,-1,-1,-1,-1,-1,-1,-1,-1,-1,-1,-1,-1,-1,-1,-1,-1,-1,-1,-1,-1,-1,-1,-1,-1,-1,-1,-1,-1,-1,-1,-1,-1,-1,102,106,106,103,52,52,52,103,107,-1,-1,-1,-1,-1,-1,-1,-1,-1,-1,-1,-1,-1,-1,-1,-1,-1,-1,-1,-1,-1,-1,-1,-1,-1,-1,-1,-1,-1,-1,-1,102,103,52,52,106,106,52,49,104,207,208,208,175,208,175,209,207,175,208,208,175,208,175,175,208,175,175,208,175,208,175,208,175,209,102,103,107,108,127,110,0,1,1,41,57,55,54,57,222,198,198,198,198,206,58,39,228,225,224,317,270,267,179,177,269,267,179,177,179,55,59,177,269,267,179,58,57,177,269,308,271,306,308,308,271
55,58,56,59,19,56,58,58,19,54,19,55,56,54,58,55,19,57,54,54,57,19,59,58,56,21,-1,-1,-1,-1,-1,-1,-1,30,31,85,34,85,31,31,85,89,-1,-1,-1,-1,-1,-1,-1,-1,-1,-1,-1,-1,-1,-1,-1,-1,-1,-1,-1,-1,-1,-1,-1,-1,-1,-1,-1,-1,-1,-1,-1,-1,-1,66,70,70,67,13,13,16,67,17,-1,-1,-1,-1,-1,-1,-1,-1,-1,-1,-1,-1,-1,-1,-1,-1,-1,-1,-1,-1,-1,-1,-1,-1,-1,-1,-1,-1,258,253,253,253,253,253,253,253,292,253,292,292,292,292,253,253,292,292,253,253,253,253,292,292,292,292,253,292,292,292,298,259,259,298,259,259,259,259,259,298,259,298,260,41,57,59,55,19,54,55,19,55,57,55,58,59,59,57,54,228,244,245,291,293,271,267,269,307,307,267,269,267,179,177,269,307,306,267,179,19,228,308,306,308,308,308,306,308
54,56,54,59,57,59,55,55,59,19,19,54,56,54,59,54,55,57,56,56,56,58,57,56,19,20,-1,-1,-1,-1,-1,-1,-1,51,52,49,103,52,103,52,52,104,-1,-1,-1,-1,-1,-1,-1,-1,-1,-1,-1,-1,-1,-1,-1,-1,-1,-1,-1,-1,-1,-1,-1,-1,-1,-1,-1,-1,-1,-1,-1,-1,-1,87,31,85,88,88,85,85,31,35,-1,-1,-1,-1,-1,-1,-1,-1,-1,-1,-1,-1,-1,-1,-1,-1,-1,-1,-1,-1,-1,-1,-1,-1,-1,-1,-1,-1,281,241,308,307,306,307,307,306,308,306,271,307,307,308,307,271,306,306,271,307,307,308,307,306,306,271,306,271,226,227,240,277,277,277,277,277,277,277,277,277,261,263,279,55,56,57,19,54,55,19,19,56,56,19,57,58,58,55,58,228,307,306,306,271,271,307,307,271,308,307,307,308,267,269,271,271,306,307,267,179,228,307,308,307,307,308,308,308
57,19,56,59,56,55,54,56,58,56,55,55,58,58,57,59,58,57,54,55,59,19,19,57,3,38,-1,-1,-1,-1,-1,-1,-1,12,67,67,67,70,13,70,16,68,-1,-1,-1,-1,-1,-1,-1,-1,-1,-1,-1,-1,-1,-1,-1,-1,-1,-1,-1,-1,-1,-1,-1,-1,-1,-1,-1,-1,-1,-1,-1,-1,-1,105,52,103,49,106,49,103,49,50,-1,-1,-1,-1,-1,-1,-1,-1,-1,-1,-1,-1,-1,-1,-1,-1,-1,-1,-1,-1,-1,-1,-1,-1,-1,-1,-1,-1,276,241,307,271,308,308,306,308,271,307,306,307,307,271,271,308,306,306,307,308,308,271,308,308,307,306,306,306,244,245,244,225,224,225,224,225,277,277,277,261,296,294,317,179,177,179,54,59,59,54,19,59,177,179,57,59,55,58,56,228,308,306,308,307,271,307,308,307,306,307,308,306,271,307,271,307,307,306,308,267,269,271,306,306,307,308,271,306
19,58,57,55,56,59,55,55,55,57,59,58,19,57,55,56,19,56,58,55,56,54,57,54,20,-1,-1,-1,-1,-1,-1,-1,-1,87,34,31,34,31,85,34,85,89,-1,-1,-1,-1,-1,-1,-1,-1,-1,-1,-1,-1,-1,-1,-1,-1,-1,-1,-1,-1,-1,-1,-1,-1,-1,-1,-1,-1,-1,-1,-1,-1,-1,15,16,16,16,67,13,70,13,14,-1,-1,-1,-1,-1,-1,-1,-1,-1,-1,-1,-1,-1,-1,-1,-1,-1,-1,-1,-1,-1,-1,-1,-1,-1,-1,-1,-1,294,256,257,271,307,306,308,308,271,271,271,306,271,271,306,306,271,271,271,308,271,271,307,308,308,271,307,308,271,307,306,244,245,244,245,240,261,263,261,296,252,292,291,229,228,267,179,19,58,54,177,179,228,267,179,56,19,57,177,269,306,306,307,271,271,307,271,306,308,307,307,271,308,307,271,271,307,307,308,308,308,307,307,306,308,308,271,306
57,19,58,54,56,58,55,57,19,59,59,58,57,57,55,57,58,54,54,55,55,58,56,19,20,-1,-1,-1,-1,-1,-1,-1,-1,102,52,52,49,103,52,52,106,53,-1,-1,-1,-1,-1,-1,-1,-1,-1,-1,-1,-1,-1,-1,-1,-1,-1,-1,-1,-1,-1,-1,-1,-1,-1,-1,-1,-1,-1,-1,-1,-1,-1,30,31,31,88,85,34,88,85,32,-1,-1,-1,-1,-1,-1,-1,-1,-1,-1,-1,-1,-1,-1,-1,-1,-1,-1,-1,-1,-1,-1,-1,-1,-1,-1,-1,-1,-1,-1,288,257,307,306,308,306,306,271,271,271,306,308,271,308,307,271,271,307,308,306,271,308,307,308,307,307,307,307,271,308,271,307,271,244,317,294,296,252,293,307,271,267,269,308,267,179,58,59,228,267,269,306,267,179,177,179,228,308,306,271,308,308,307,306,271,307,307,308,306,307,306,306,271,271,271,306,307,306,307,271,271,306,307,271,271,306
55,55,54,55,55,19,19,59,58,58,19,56,56,54,19,55,19,55,55,57,55,56,57,3,38,-1,-1,-1,-1,-1,-1,-1,-1,69,16,70,67,16,13,13,70,17,-1,-1,-1,-1,-1,-1,-1,-1,-1,-1,-1,-1,-1,-1,-1,-1,-1,-1,-1,-1,-1,-1,-1,-1,-1,-1,-1,-1,-1,-1,-1,-1,-1,51,52,106,52,52,103,49,52,107,-1,-1,-1,-1,-1,-1,-1,-1,-1,-1,-1,-1,-1,-1,-1,-1,-1,-1,-1,-1,-1,-1,-1,-1,-1,-1,-1,-1,-1,-1,-1,288,289,256,256,256,256,289,257,271,307,271,308,271,306,271,307,307,308,271,307,308,308,307,307,271,271,306,307,307,271,307,307,307,291,292,253,293,271,308,307,306,307,308,306,308,308,271,308,307,271,271,271,267,269,267,269,306,308,307,306,271,271,306,271,307,271,306,307,306,307,271,271,308,308,307,307,308,271,271,271,307,307,271,308,307
58,57,58,58,57,55,59,54,59,55,19,58,58,19,54,54,57,54,54,19,19,19,19,21,-1,-1,-1,-1,-1,-1,-1,-1,-1,30,88,85,31,34,31,34,31,89,-1,-1,-1,-1,-1,-1,-1,-1,-1,-1,-1,-1,-1,-1,-1,-1,-1,-1,-1,-1,-1,-1,-1,-1,-1,-1,-1,-1,-1,-1,-1,-1,-1,66,67,70,13,13,70,70,13,14,-1,-1,-1,-1,-1,-1,-1,-1,-1,-1,-1,-1,-1,-1,-1,-1,-1,-1,-1,-1,-1,-1,-1,-1,-1,-1,-1,-1,-1,-1,-1,12,16,70,70,70,70,13,288,289,256,257,308,307,306,308,308,308,307,271,271,271,306,308,308,271,307,271,271,271,271,307,271,271,308,306,271,307,306,308,308,271,271,271,308,271,271,307,307,308,308,308,307,271,271,307,307,271,271,307,306,271,307,308,271,306,307,308,307,306,271,308,306,308,308,307,307,271,306,306,307,307,306,271,308,307
58,56,58,55,54,58,58,19,55,54,59,56,58,19,55,56,54,54,56,58,57,57,54,21,-1,-1,-1,-1,-1,-1,-1,-1,-1,51,106,103,103,103,52,106,52,107,-1,-1,-1,-1,-1,-1,-1,-1,-1,-1,-1,-1,-1,-1,-1,-1,-1,-1,-1,-1,-1,-1,-1,-1,-1,-1,-1,-1,-1,-1,-1,-1,-1,33,85,31,31,34,34,34,31,89,-1,-1,-1,-1,-1,-1,-1,-1,-1,-1,-1,-1,-1,-1,-1,-1,-1,-1,-1,-1,-1,-1,-1,-1,-1,-1,-1,-1,-1,-1,-1,87,34,31,85,88,34,88,31,32,-1,275,307,271,271,308,307,308,306,308,271,307,271,307,306,307,307,271,307,271,307,308,306,308,308,271,308,308,307,308,308,306,271,308,306,307,271,307,271,271,307,307,306,306,307,308,308,306,306,306,307,307,308,308,308,306,308,306,308,307,307,307,271,271,271,271,308,306,308,271,307,306,308,306,307,306
58,56,57,57,58,56,54,58,59,57,55,59,55,19,55,56,59,56,55,59,56,54,54,21,-1,-1,-1,-1,-1,-1,-1,-1,-1,15,16,16,16,13,70,67,70,71,-1,-1,-1,-1,-1,-1,-1,-1,-1,-1,-1,-1,-1,-1,-1,-1,-1,-1,-1,-1,-1,-1,-1,-1,-1,-1,-1,-1,-1,-1,-1,-1,-1,102,49,106,49,106,103,103,106,53,-1,-1,-1,-1,-1,-1,-1,-1,-1,-1,-1,-1,-1,-1,-1,-1,-1,-1,-1,-1,-1,-1,-1,-1,-1,-1,-1,-1,-1,-1,-1,105,103,103,106,103,106,49,49,50,-1,270,307,271,307,307,308,271,306,306,307,271,307,271,307,308,308,271,308,271,271,308,307,306,307,271,271,271,271,271,308,308,308,271,306,271,306,308,307,306,307,271,308,307,307,307,308,307,307,306,307,271,307,308,271,308,307,308,307,271,308,308,308,307,307,308,306,271,271,306,306,307,271,307,307,306
54,56,19,57,57,56,55,59,19,19,58,55,19,58,19,54,54,58,55,54,54,54,54,21,-1,-1,-1,-1,-1,-1,-1,-1,-1,30,85,34,85,31,31,85,88,89,-1,-1,-1,-1,-1,-1,-1,-1,-1,-1,-1,-1,-1,-1,-1,-1,-1,-1,-1,-1,-1,-1,-1,-1,-1,-1,-1,-1,-1,-1,-1,-1,-1,15,70,13,16,70,67,67,67,68,-1,-1,-1,-1,-1,-1,-1,-1,-1,-1,-1,-1,-1,-1,-1,-1,-1,-1,-1,-1,-1,-1,-1,-1,-1,-1,-1,-1,-1,-1,-1,69,70,67,16,13,67,16,16,14,-1,270,308,271,271,308,307,308,308,307,308,307,307,306,307,308,307,271,307,271,308,271,307,306,271,306,271,271,306,307,307,308,306,307,308,306,271,271,271,271,306,271,307,307,307,307,271,308,271,306,307,307,271,271,271,271,307,306,271,271,306,306,307,307,271,306,306,308,307,307,307,271,308,307,308,306
57,19,19,58,57,59,54,58,55,56,19,58,57,56,57,56,54,59,57,55,58,55,3,38,-1,-1,-1,-1,-1,-1,-1,-1,-1,51,52,106,103,103,52,49,103,53,-1,-1,-1,-1,-1,-1,-1,-1,-1,-1,-1,-1,-1,-1,-1,-1,-1,-1,-1,-1,-1,-1,-1,-1,-1,-1,-1,-1,-1,-1,-1,-1,-1,87,85,85,34,88,88,88,88,35,-1,-1,-1,-1,-1,-1,-1,-1,-1,-1,-1,-1,-1,-1,-1,-1,-1,-1,-1,-1,-1,-1,-1,-1,-1,-1,-1,-1,-1,-1,-1,84,85,31,31,88,88,88,31,32,-1,288,257,308,308,307,271,308,308,306,307,271,306,308,271,307,307,308,307,271,307,306,307,271,306,271,271,306,308,306,271,308,307,271,271,308,308,271,306,307,307,271,306,307,271,307,307,307,308,308,306,307,307,271,306,308,308,306,271,271,306,306,271,308,308,271,308,306,271,308,307,308,306,308,308,306
19,59,57,54,59,54,56,55,58,54,59,59,55,19,57,58,19,19,59,59,56,56,21,-1,-1,-1,-1,-1,-1,-1,-1,-1,-1,15,67,13,16,16,70,70,13,14,-1,-1,-1,-1,-1,-1,-1,-1,-1,-1,-1,-1,-1,-1,-1,-1,-1,-1,-1,-1,-1,-1,-1,-1,-1,-1,-1,-1,-1,-1,-1,-1,-1,105,103,103,106,106,52,106,52,107,-1,-1,-1,-1,-1,-1,-1,-1,-1,-1,-1,-1,-1,-1,-1,-1,-1,-1,-1,-1,-1,-1,-1,-1,-1,-1,-1,-1,-1,-1,-1,105,103,52,103,103,103,49,49,53,-1,-1,270,306,271,271,308,308,308,307,308,307,271,306,306,308,306,308,308,307,271,306,308,307,307,271,306,308,271,307,271,307,271,308,271,306,308,271,306,307,308,307,308,306,271,271,307,306,306,308,307,308,306,308,271,308,307,308,306,307,307,308,306,308,307,308,308,307,307,307,271,306,308,271,306,307
19,59,56,57,57,56,19,55,57,58,59,56,58,56,58,56,57,54,57,57,19,55,21,-1,-1,-1,-1,-1,-1,-1,-1,-1,-1,30,88,88,31,34,34,88,31,32,-1,-1,-1,-1,-1,-1,-1,-1,-1,-1,-1,-1,-1,-1,-1,-1,-1,-1,-1,-1,-1,-1,-1,-1,-1,-1,-1,-1,-1,-1,-1,-1,-1,15,16,16,16,67,70,70,16,17,-1,-1,-1,-1,-1,-1,-1,-1,-1,-1,-1,-1,-1,-1,-1,-1,-1,-1,-1,-1,-1,-1,-1,-1,-1,-1,-1,-1,-1,-1,-1,69,70,70,70,70,70,16,16,68,-1,-1,288,314,306,307,308,307,307,307,271,308,271,307,306,271,307,271,306,306,306,271,306,271,307,307,306,307,271,307,271,306,306,308,307,306,271,308,306,308,306,308,307,308,307,271,271,271,271,271,307,271,308,306,271,271,306,271,306,308,306,306,308,271,306,306,307,308,307,271,306,307,306,271,271,271
57,54,58,57,19,55,56,59,57,58,57,57,59,57,57,57,59,57,54,19,54,19,20,-1,-1,-1,-1,-1,-1,-1,-1,-1,-1,105,52,49,52,106,52,49,49,53,-1,-1,-1,-1,-1,-1,-1,-1,-1,-1,-1,-1,-1,-1,-1,-1,-1,-1,-1,-1,-1,-1,-1,-1,-1,-1,-1,-1,-1,-1,-1,-1,-1,30,88,31,85,31,31,34,85,89,-1,-1,-1,-1,-1,-1,-1,-1,-1,-1,-1,-1,-1,-1,-1,-1,-1,-1,-1,-1,-1,-1,-1,-1,-1,-1,-1,-1,-1,-1,-1,30,31,31,88,31,34,31,85,32,-1,-1,-1,276,241,271,307,308,307,308,271,271,271,307,271,271,271,307,308,307,307,271,271,307,271,307,308,306,308,308,308,307,308,271,306,307,307,306,307,271,307,306,306,306,308,271,308,271,306,308,306,306,307,308,308,308,306,307,307,271,308,271,307,306,308,306,306,271,308,308,308,307,307,306,306,307
58,58,57,58,56,55,59,58,58,59,57,54,58,54,58,19,58,57,56,58,3,37,38,-1,-1,-1,-1,-1,-1,-1,-1,-1,-1,12,70,16,70,16,70,67,67,14,-1,-1,-1,-1,-1,-1,-1,-1,-1,-1,-1,-1,-1,-1,-1,-1,-1,-1,-1,-1,-1,-1,-1,-1,-1,-1,-1,-1,-1,-1,-1,-1,-1,51,106,106,49,106,49,49,49,107,-1,-1,-1,-1,-1,-1,-1,-1,-1,-1,-1,-1,-1,-1,-1,-1,-1,-1,-1,-1,-1,-1,-1,-1,-1,-1,-1,-1,-1,-1,-1,102,49,106,52,49,103,49,49,53,-1,-1,-1,276,241,308,307,307,308,307,271,307,308,271,307,271,271,306,308,306,271,306,307,308,307,308,271,306,306,306,308,306,307,306,306,306,306,306,307,308,226,227,307,306,306,306,271,271,308,306,271,271,307,271,308,306,271,271,307,271,271,306,307,308,308,307,271,307,308,307,307,307,306,306,306,308
58,56,19,19,54,19,59,56,56,58,54,54,59,56,55,55,58,58,3,4,38,-1,-1,-1,-1,-1,-1,-1,-1,-1,-1,-1,-1,30,31,88,88,34,31,85,31,35,-1,-1,-1,-1,-1,-1,-1,-1,-1,-1,-1,-1,-1,-1,-1,-1,-1,-1,-1,-1,-1,-1,-1,-1,-1,-1,-1,-1,-1,-1,-1,-1,-1,12,13,70,13,13,13,16,67,71,-1,-1,-1,-1,-1,-1,-1,-1,-1,-1,-1,-1,-1,-1,-1,-1,-1,-1,-1,-1,-1,-1,-1,-1,-1,-1,-1,-1,-1,-1,-1,12,67,13,13,67,67,70,67,71,-1,-1,-1,294,257,306,271,307,307,271,307,308,307,306,308,306,306,306,307,306,271,271,271,306,307,226,243,241,306,307,308,308,306,306,271,307,271,271,306,226,243,241,307,307,308,271,308,308,226,227,306,308,271,308,308,308,306,306,308,308,271,271,307,308,307,307,306,271,308,306,307,308,306,307,306,308
59,58,19,57,57,56,59,59,58,59,19,58,19,59,19,59,19,3,38,-1,-1,-1,-1,-1,-1,-1,-1,-1,-1,-1,-1,-1,-1,102,103,103,106,52,106,106,106,107,-1,-1,-1,-1,-1,-1,-1,-1,-1,-1,-1,-1,-1,-1,-1,-1,-1,-1,-1,-1,-1,-1,-1,-1,-1,-1,-1,-1,-1,-1,-1,-1,-1,30,31,88,34,34,88,85,85,32,-1,-1,-1,-1,-1,-1,-1,-1,-1,-1,-1,-1,-1,-1,-1,-1,-1,-1,-1,-1,-1,-1,-1,-1,-1,-1,-1,-1,-1,-1,-1,87,85,88,34,31,85,85,88,32,-1,-1,-1,-1,288,257,308,307,307,308,308,271,306,307,308,307,307,308,226,227,271,307,306,308,226,243,277,241,308,307,306,307,271,271,306,307,306,308,226,243,277,241,307,307,306,306,306,226,243,241,271,308,308,306,226,227,306,271,271,226,227,306,308,307,307,308,271,308,271,308,307,307,271,308,306,271
55,55,59,3,4,37,4,37,37,37,4,37,37,4,4,4,4,38,-1,-1,-1,-1,-1,-1,-1,-1,-1,-1,-1,-1,-1,-1,-1,15,67,13,70,70,67,70,70,17,-1,-1,-1,-1,-1,-1,-1,-1,-1,-1,-1,-1,-1,-1,-1,-1,-1,-1,-1,-1,-1,-1,-1,-1,-1,-1,-1,-1,-1,-1,-1,-1,-1,102,52,103,103,106,106,106,49,53,-1,-1,-1,-1,-1,-1,-1,-1,-1,-1,-1,-1,-1,-1,-1,-1,-1,-1,-1,-1,-1,-1,-1,-1,-1,-1,-1,-1,-1,-1,-1,102,103,52,49,103,103,106,103,50,-1,-1,-1,-1,-1,288,257,308,271,271,307,307,271,308,307,306,307,226,243,241,306,308,306,226,243,277,277,241,271,306,308,307,271,271,308,308,308,271,240,277,277,241,308,307,308,271,226,243,277,241,307,307,271,226,243,241,271,306,226,243,242,227,226,227,226,227,307,271,308,308,271,307,271,306,271,308
4,37,4,38,171,211,211,211,211,211,173,171,172,173,171,173,-1,-1,-1,-1,-1,-1,-1,-1,-1,-1,-1,-1,-1,-1,-1,-1,-1,84,31,88,31,88,31,85,88,86,-1,-1,-1,-1,-1,-1,-1,-1,-1,-1,-1,-1,-1,-1,-1,-1,-1,-1,-1,-1,-1,-1,-1,-1,-1,-1,-1,-1,-1,-1,-1,-1,-1,12,67,70,70,13,13,70,70,71,-1,-1,-1,-1,-1,-1,-1,-1,-1,-1,-1,-1,-1,-1,-1,-1,-1,-1,-1,-1,-1,-1,-1,-1,-1,-1,-1,-1,-1,-1,-1,15,70,13,67,16,13,13,67,71,-1,-1,-1,-1,-1,-1,288,256,257,308,306,308,308,307,307,271,226,243,277,241,306,307,308,240,277,277,277,241,307,308,307,307,271,306,271,308,271,308,244,225,277,241,271,306,306,307,240,277,277,241,306,308,307,240,277,241,307,271,240,277,277,242,243,242,243,241,226,227,226,227,306,306,271,308,308,271
171,172,172,172,212,153,153,155,154,190,192,194,153,210,212,191,-1,-1,-1,-1,-1,-1,-1,-1,-1,-1,-1,-1,-1,-1,-1,-1,-1,51,49,106,106,52,103,103,106,53,-1,-1,-1,-1,-1,-1,-1,-1,-1,-1,-1,-1,-1,-1,-1,-1,-1,-1,-1,-1,-1,-1,-1,-1,-1,-1,-1,-1,-1,-1,-1,-1,-1,84,85,34,34,34,34,31,85,89,-1,-1,-1,-1,-1,-1,-1,-1,-1,-1,-1,-1,-1,-1,-1,-1,-1,-1,-1,-1,-1,-1,-1,-1,-1,-1,-1,-1,-1,-1,-1,30,31,88,31,31,88,88,88,35,-1,-1,-1,-1,-1,-1,-1,-1,288,257,306,306,308,307,306,307,240,277,277,241,271,271,306,244,225,277,277,241,271,307,308,306,307,271,271,306,271,308,271,244,225,241,308,271,307,308,244,225,277,241,307,308,226,243,277,241,306,306,240,277,277,277,277,277,277,242,243,242,243,242,227,307,306,306,271,306
194,154,155,190,154,154,190,190,174,175,209,194,153,190,174,209,-1,-1,-1,-1,-1,-1,-1,-1,-1,-1,-1,-1,-1,-1,-1,-1,-1,66,16,13,13,70,13,70,16,14,-1,-1,-1,-1,-1,-1,-1,-1,-1,-1,-1,-1,-1,-1,-1,-1,-1,-1,-1,-1,-1,-1,-1,-1,-1,-1,-1,-1,-1,-1,-1,-1,-1,102,52,52,103,49,106,106,52,50,-1,-1,-1,-1,-1,-1,-1,-1,-1,-1,-1,-1,-1,-1,-1,-1,-1,-1,-1,-1,-1,-1,-1,-1,-1,-1,-1,-1,-1,-1,-1,102,49,103,106,52,52,103,52,53,-1,-1,-1,-1,-1,-1,-1,-1,-1,288,257,271,271,306,307,306,244,225,277,241,271,271,308,271,244,225,277,241,271,306,307,308,271,271,271,271,308,306,306,271,244,245,307,307,271,271,307,244,225,241,306,306,240,277,277,242,227,226,243,277,224,225,224,225,277,277,277,277,277,277,241,271,307,307,307,271
194,154,153,153,153,174,175,208,209,171,172,212,154,154,191,-1,-1,-1,-1,-1,-1,-1,-1,-1,-1,-1,-1,-1,-1,-1,-1,-1,-1,84,31,88,85,88,34,34,31,32,-1,-1,-1,-1,-1,-1,-1,-1,-1,-1,-1,-1,-1,-1,-1,-1,-1,-1,-1,-1,-1,-1,-1,-1,-1,-1,-1,-1,-1,-1,-1,-1,-1,66,70,70,70,13,67,16,67,14,-1,-1,-1,-1,-1,-1,-1,-1,-1,-1,-1,-1,-1,-1,-1,-1,-1,-1,-1,-1,-1,-1,-1,-1,-1,-1,-1,-1,-1,-1,-1,12,67,13,67,70,70,70,67,17,-1,-1,-1,-1,-1,-1,-1,-1,-1,-1,288,289,256,257,306,308,308,244,225,241,307,307,306,307,307,244,225,241,271,271,308,306,306,306,271,271,307,307,271,308,271,308,307,307,308,271,271,271,244,245,271,271,244,225,277,277,242,243,277,277,241,244,245,244,225,224,225,224,225,224,245,308,307,307,308,307
194,155,153,154,174,209,171,172,172,212,153,190,155,174,209,-1,-1,-1,-1,-1,-1,-1,-1,-1,-1,-1,-1,-1,-1,-1,-1,-1,-1,48,106,103,103,52,49,106,103,107,-1,-1,-1,-1,-1,-1,-1,-1,-1,-1,-1,-1,-1,-1,-1,-1,-1,-1,-1,-1,-1,-1,-1,-1,-1,-1,-1,-1,-1,-1,-1,-1,-1,33,34,88,34,34,34,31,31,86,-1,-1,-1,-1,-1,-1,-1,-1,-1,-1,-1,-1,-1,-1,-1,-1,-1,-1,-1,-1,-1,-1,-1,-1,-1,-1,-1,-1,-1,-1,-1,87,34,34,34,88,88,85,34,86,-1,-1,-1,-1,-1,-1,-1,-1,-1,-1,-1,-1,-1,288,257,307,271,308,244,245,306,271,307,308,271,271,306,307,271,308,308,306,307,306,308,306,271,307,271,271,307,307,306,307,307,308,271,307,308,306,306,271,307,244,225,277,277,277,277,277,241,308,306,306,244,245,244,245,244,245,306,307,307,308,306,306
207,176,155,174,209,171,212,174,176,153,153,155,154,191,-1,-1,-1,-1,-1,-1,-1,-1,-1,-1,-1,-1,-1,-1,-1,-1,-1,-1,-1,12,16,16,70,16,67,70,67,68,-1,-1,-1,-1,-1,-1,-1,-1,-1,-1,-1,-1,-1,-1,-1,-1,-1,-1,-1,-1,-1,-1,-1,-1,-1,-1,-1,-1,-1,-1,-1,-1,-1,48,49,106,103,49,106,52,106,104,-1,-1,-1,-1,-1,-1,-1,-1,-1,-1,-1,-1,-1,-1,-1,-1,-1,-1,-1,-1,-1,-1,-1,-1,-1,-1,-1,-1,-1,-1,-1,51,103,49,52,49,52,52,106,53,-1,-1,-1,-1,-1,-1,-1,-1,-1,-1,-1,-1,-1,-1,288,289,256,256,256,256,256,289,289,257,308,306,306,271,271,307,308,306,308,308,308,271,271,271,306,271,306,308,271,271,308,308,308,307,271,308,308,271,306,271,244,225,224,225,224,225,241,308,307,307,271,271,307,306,308,307,306,306,306,271,308,308
-1,194,155,210,172,212,154,191,207,175,176,154,190,192,-1,-1,-1,-1,-1,-1,-1,-1,-1,-1,-1,-1,-1,-1,-1,-1,-1,-1,-1,33,34,34,31,31,85,31,31,32,-1,-1,-1,-1,-1,-1,-1,-1,-1,-1,-1,-1,-1,-1,-1,-1,-1,-1,-1,-1,-1,-1,-1,-1,-1,-1,-1,-1,-1,-1,-1,-1,-1,15,70,16,67,16,13,13,16,17,-1,-1,-1,-1,-1,-1,-1,-1,-1,-1,-1,-1,-1,-1,-1,-1,-1,-1,-1,-1,-1,-1,-1,-1,-1,-1,-1,-1,-1,-1,-1,69,67,13,13,67,67,16,67,68,-1,-1,-1,-1,-1,-1,-1,-1,-1,-1,-1,-1,-1,-1,-1,-1,-1,-1,-1,-1,-1,-1,-1,288,289,289,256,289,289,289,289,256,256,256,256,289,289,289,256,289,289,257,308,307,308,271,306,271,306,308,308,307,271,306,308,244,245,244,245,244,245,306,306,307,308,306,307,306,306,308,306,271,271,307,307,271
-1,194,154,154,153,153,153,210,173,-1,189,154,174,209,-1,-1,-1,-1,-1,-1,-1,-1,-1,-1,-1,-1,-1,-1,-1,-1,-1,-1,-1,48,106,106,52,49,106,52,52,50,-1,-1,-1,-1,-1,-1,-1,-1,-1,-1,-1,-1,-1,-1,-1,-1,-1,-1,-1,-1,-1,-1,-1,-1,-1,-1,-1,-1,-1,-1,-1,-1,-1,30,85,85,34,34,88,85,31,35,-1,-1,-1,-1,-1,-1,-1,-1,-1,-1,-1,-1,-1,-1,-1,-1,-1,-1,-1,-1,-1,-1,-1,-1,-1,-1,-1,-1,-1,-1,-1,84,88,88,88,31,34,88,88,35,-1,-1,-1,-1,-1,-1,-1,-1,-1,-1,-1,-1,-1,-1,-1,-1,-1,-1,-1,-1,-1,-1,-1,-1,-1,-1,-1,-1,66,16,68,-1,171,211,172,211,211,172,211,173,-1,288,256,289,257,308,308,307,308,271,306,306,308,271,271,271,306,306,271,308,308,306,271,308,307,308,306,271,308,308,306,307,271,306,226,227
171,212,190,155,155,174,176,153,192,171,212,155,192,-1,-1,-1,-1,-1,-1,-1,-1,-1,-1,-1,-1,-1,-1,-1,-1,-1,-1,-1,-1,66,70,16,16,16,70,70,70,17,-1,-1,-1,-1,-1,-1,-1,-1,-1,-1,-1,-1,-1,-1,-1,-1,-1,-1,-1,-1,-1,-1,-1,-1,-1,-1,-1,-1,-1,-1,-1,-1,-1,102,103,49,52,106,103,103,103,104,-1,-1,-1,-1,-1,-1,-1,-1,-1,-1,-1,-1,-1,-1,-1,-1,-1,-1,-1,-1,-1,-1,-1,-1,-1,-1,-1,-1,-1,-1,-1,102,49,106,103,52,52,106,106,50,-1,-1,-1,-1,-1,-1,-1,-1,-1,-1,-1,-1,-1,-1,-1,-1,-1,-1,-1,-1,-1,-1,-1,-1,-1,-1,-1,-1,33,88,86,-1,189,154,154,153,155,153,190,210,172,172,172,173,288,256,256,289,256,289,289,256,256,257,308,308,271,308,271,308,307,271,271,307,307,306,271,307,307,271,271,306,306,226,243,241
194,154,154,155,174,209,207,175,209,194,155,154,191,-1,-1,-1,-1,-1,-1,-1,-1,-1,-1,-1,-1,-1,-1,-1,-1,-1,-1,-1,-1,87,34,31,88,85,85,85,31,86,-1,-1,-1,-1,-1,-1,-1,-1,-1,-1,-1,-1,-1,-1,-1,-1,-1,-1,-1,-1,-1,-1,-1,-1,-1,-1,-1,-1,-1,-1,-1,-1,-1,12,13,16,67,70,16,16,67,68,-1,-1,-1,-1,-1,-1,-1,-1,-1,-1,-1,-1,-1,-1,-1,-1,-1,-1,-1,-1,-1,-1,-1,-1,-1,-1,-1,-1,-1,-1,-1,12,70,13,13,70,13,67,70,71,-1,-1,-1,-1,-1,-1,-1,-1,-1,-1,-1,-1,-1,-1,-1,-1,-1,-1,-1,-1,-1,-1,-1,-1,-1,-1,-1,-1,30,85,89,-1,207,208,208,175,176,155,153,154,153,153,154,192,-1,-1,-1,-1,-1,-1,69,70,17,288,289,256,289,256,289,289,257,271,271,306,307,271,308,271,271,307,306,306,226,243,277,241
189,174,208,176,210,211,211,172,211,212,174,176,192,-1,-1,-1,-1,-1,-1,-1,-1,-1,-1,-1,-1,-1,-1,-1,-1,-1,-1,-1,-1,48,49,49,106,106,52,106,52,53,-1,-1,-1,-1,-1,-1,-1,-1,-1,-1,-1,-1,-1,-1,-1,-1,-1,-1,-1,-1,-1,-1,-1,-1,-1,-1,-1,-1,-1,-1,-1,-1,-1,84,34,85,34,31,88,34,34,35,-1,-1,-1,-1,-1,-1,-1,-1,-1,-1,-1,-1,-1,-1,-1,-1,-1,-1,-1,-1,-1,-1,-1,-1,-1,-1,-1,-1,-1,-1,-1,84,85,31,31,31,88,88,85,32,-1,-1,-1,-1,-1,-1,-1,-1,-1,-1,-1,-1,-1,-1,-1,-1,-1,-1,-1,-1,-1,-1,-1,-1,-1,-1,-1,-1,84,85,32,-1,-1,-1,-1,-1,207,176,154,174,176,154,153,191,-1,-1,-1,-1,-1,-1,33,31,32,-1,-1,171,172,211,211,173,288,289,256,257,306,307,308,308,307,271,307,306,240,277,277,241
194,191,171,212,190,153,190,153,155,154,191,207,209,-1,-1,-1,-1,-1,-1,-1,-1,-1,-1,-1,-1,-1,-1,-1,-1,-1,-1,-1,-1,12,13,67,70,67,70,67,16,17,-1,-1,-1,-1,-1,-1,-1,-1,-1,-1,-1,-1,-1,-1,-1,-1,-1,-1,-1,-1,-1,-1,-1,-1,-1,-1,-1,-1,-1,-1,-1,-1,-1,105,103,49,106,52,106,103,103,107,-1,-1,-1,-1,-1,-1,-1,-1,-1,-1,-1,-1,-1,-1,-1,-1,-1,-1,-1,-1,-1,-1,-1,-1,-1,-1,-1,-1,-1,-1,-1,102,103,52,103,49,103,52,49,104,-1,-1,-1,-1,-1,-1,-1,-1,-1,-1,-1,-1,-1,-1,-1,-1,-1,-1,-1,-1,-1,-1,-1,-1,-1,-1,-1,-1,84,88,35,-1,-1,-1,-1,-1,-1,207,208,209,189,154,153,191,-1,-1,-1,-1,-1,-1,33,31,35,-1,-1,207,176,190,190,192,-1,-1,-1,288,257,306,271,307,308,308,308,308,244,225,277,241
189,192,189,153,190,155,153,174,176,153,210,173,-1,-1,-1,-1,-1,-1,-1,-1,-1,-1,-1,-1,-1,-1,-1,-1,-1,-1,-1,-1,-1,87,34,85,85,34,34,31,85,32,-1,-1,-1,-1,-1,-1,-1,-1,-1,-1,-1,-1,-1,-1,-1,-1,-1,-1,-1,-1,-1,-1,-1,-1,-1,-1,-1,-1,-1,-1,-1,-1,-1,15,67,13,16,13,70,67,13,68,-1,-1,-1,-1,-1,-1,-1,-1,-1,-1,-1,-1,-1,-1,-1,-1,-1,-1,-1,-1,-1,-1,-1,-1,-1,-1,-1,-1,-1,-1,-1,15,13,13,70,13,67,16,13,71,-1,-1,-1,-1,-1,-1,-1,-1,-1,-1,-1,-1,-1,-1,-1,-1,-1,-1,-1,-1,-1,-1,-1,-1,-1,-1,-1,-1,87,31,89,-1,-1,-1,-1,-1,-1,-1,-1,-1,207,175,208,209,-1,-1,-1,-1,-1,-1,84,31,89,-1,-1,-1,207,208,175,209,-1,-1,-1,-1,288,256,289,289,256,257,308,308,307,244,225,241
189,191,194,154,153,154,190,191,189,154,174,209,-1,-1,-1,-1,-1,-1,-1,-1,-1,-1,-1,-1,-1,-1,-1,-1,-1,-1,-1,-1,-1,102,106,106,49,52,106,103,49,53,-1,-1,-1,-1,-1,-1,-1,-1,-1,-1,-1,-1,-1,-1,-1,-1,-1,-1,-1,-1,-1,-1,-1,-1,-1,-1,-1,-1,-1,-1,-1,-1,-1,30,31,88,85,34,31,88,88,32,-1,-1,-1,-1,-1,-1,-1,-1,-1,-1,-1,-1,-1,-1,-1,-1,-1,-1,-1,-1,-1,-1,-1,-1,-1,-1,-1,-1,-1,-1,-1,30,31,85,34,31,85,85,88,86,-1,-1,-1,-1,-1,-1,-1,-1,-1,-1,-1,-1,-1,-1,-1,-1,-1,-1,-1,-1,-1,-1,-1,-1,-1,-1,-1,-1,33,34,86,-1,-1,-1,-1,-1,-1,-1,-1,-1,-1,-1,-1,-1,-1,-1,-1,-1,-1,-1,33,34,35,-1,-1,-1,-1,-1,-1,-1,-1,-1,-1,-1,-1,-1,-1,-1,-1,288,256,289,289,257,240,242
194,192,207,208,176,155,155,191,194,190,191,171,173,-1,-1,-1,-1,-1,-1,-1,-1,-1,-1,-1,-1,-1,-1,-1,-1,-1,-1,-1,-1,15,16,16,16,16,16,70,67,14,-1,-1,-1,-1,-1,-1,-1,-1,-1,-1,-1,-1,-1,-1,-1,-1,-1,-1,-1,-1,-1,-1,-1,-1,-1,-1,-1,-1,-1,-1,-1,-1,-1,105,103,103,52,106,106,106,103,107,-1,-1,-1,-1,-1,-1,-1,-1,-1,-1,-1,-1,-1,-1,-1,-1,-1,-1,-1,-1,-1,-1,-1,-1,-1,-1,-1,-1,-1,-1,-1,48,106,106,52,103,103,103,52,53,-1,-1,-1,-1,-1,-1,-1,-1,-1,-1,-1,-1,-1,-1,-1,-1,-1,-1,-1,-1,-1,-1,-1,-1,-1,-1,-1,-1,87,85,32,-1,-1,-1,-1,-1,-1,-1,-1,-1,-1,-1,-1,-1,-1,-1,-1,-1,-1,-1,87,85,35,-1,-1,-1,-1,-1,-1,-1,-1,-1,-1,-1,-1,-1,-1,-1,-1,69,16,14,-1,-1,-1,-1
194,191,171,173,194,154,153,210,212,153,191,207,209,-1,-1,-1,-1,-1,-1,-1,-1,-1,-1,-1,-1,-1,-1,-1,-1,-1,-1,-1,-1,84,31,88,88,31,88,34,88,89,-1,-1,-1,-1,-1,-1,-1,-1,-1,-1,-1,-1,-1,-1,-1,-1,-1,-1,-1,-1,-1,-1,-1,-1,-1,-1,-1,-1,-1,-1,-1,-1,-1,15,67,70,67,13,16,13,13,17,-1,-1,-1,-1,-1,-1,-1,-1,-1,-1,-1,-1,-1,-1,-1,-1,-1,-1,-1,-1,-1,-1,-1,-1,-1,-1,-1,-1,-1,-1,-1,15,16,16,16,70,67,13,13,71,-1,-1,-1,-1,-1,-1,-1,-1,-1,-1,-1,-1,-1,-1,-1,-1,-1,-1,-1,-1,-1,-1,-1,-1,-1,-1,-1,-1,84,34,35,-1,-1,-1,-1,-1,-1,-1,-1,-1,-1,-1,-1,-1,-1,-1,-1,-1,-1,-1,30,31,32,-1,-1,-1,-1,-1,-1,-1,-1,-1,-1,-1,-1,-1,-1,-1,-1,33,31,89,-1,-1,-1,-1
189,210,212,192,207,176,155,154,155,153,191,171,211,211,173,-1,-1,-1,-1,-1,-1,-1,-1,-1,-1,-1,-1,-1,-1,-1,-1,-1,-1,102,103,49,49,52,103,52,52,53,-1,-1,-1,-1,-1,-1,-1,-1,-1,-1,-1,-1,-1,-1,-1,-1,-1,-1,-1,-1,-1,-1,-1,-1,-1,-1,-1,-1,-1,-1,-1,-1,-1,84,88,34,34,88,34,85,31,35,-1,-1,-1,-1,-1,-1,-1,-1,-1,-1,-1,-1,-1,-1,-1,-1,-1,-1,-1,-1,-1,-1,-1,-1,-1,-1,-1,-1,-1,-1,-1,87,31,88,88,85,85,34,88,86,-1,-1,-1,-1,-1,-1,-1,-1,-1,-1,-1,-1,-1,-1,-1,-1,-1,-1,-1,-1,-1,-1,-1,-1,-1,-1,-1,-1,33,88,35,-1,-1,-1,-1,-1,-1,-1,-1,-1,-1,-1,-1,-1,-1,-1,-1,-1,-1,-1,30,85,86,-1,-1,-1,-1,-1,-1,-1,-1,-1,-1,-1,-1,-1,-1,-1,-1,84,85,32,-1,-1,-1,-1
194,154,154,210,173,189,153,154,155,153,210,212,174,208,209,-1,-1,-1,-1,-1,-1,-1,-1,-1,-1,-1,-1,-1,-1,-1,-1,-1,-1,66,70,16,70,67,13,70,67,71,-1,-1,-1,-1,-1,-1,-1,-1,-1,-1,-1,-1,-1,-1,-1,-1,-1,-1,-1,-1,-1,-1,-1,-1,-1,-1,-1,-1,-1,-1,-1,-1,-1,48,106,103,52,103,52,103,49,107,-1,-1,-1,-1,-1,-1,-1,-1,-1,-1,-1,-1,-1,-1,-1,-1,-1,-1,-1,-1,-1,-1,-1,-1,-1,-1,-1,-1,-1,-1,-1,102,103,103,49,49,52,106,52,104,-1,-1,-1,-1,-1,-1,-1,-1,-1,-1,-1,-1,-1,-1,-1,-1,-1,-1,-1,-1,-1,-1,-1,-1,-1,-1,-1,-1,33,34,86,-1,-1,-1,-1,-1,-1,-1,-1,-1,-1,-1,-1,-1,-1,-1,-1,-1,-1,-1,87,88,89,-1,-1,-1,-1,-1,-1,-1,-1,-1,-1,-1,-1,-1,-1,-1,-1,33,88,86,-1,-1,-1,-1
189,190,153,154,191,207,176,153,153,190,190,174,209,171,172,172,173,-1,-1,-1,-1,-1,-1,-1,-1,-1,-1,-1,-1,-1,-1,-1,-1,30,85,85,34,85,85,34,34,86,-1,-1,-1,-1,-1,-1,-1,-1,-1,-1,-1,-1,-1,-1,-1,-1,-1,-1,-1,-1,-1,-1,-1,-1,-1,-1,-1,-1,-1,-1,-1,-1,-1,66,16,67,67,13,70,13,67,68,-1,-1,-1,-1,-1,-1,-1,-1,-1,-1,-1,-1,-1,-1,-1,-1,-1,-1,-1,-1,-1,-1,-1,-1,-1,-1,-1,-1,-1,-1,-1,15,67,16,16,67,16,16,13,14,-1,-1,-1,-1,-1,-1,-1,-1,-1,-1,-1,-1,-1,-1,-1,-1,-1,-1,-1,-1,-1,-1,-1,-1,-1,-1,-1,-1,30,88,35,-1,-1,-1,-1,-1,-1,-1,-1,-1,-1,-1,-1,-1,-1,-1,-1,-1,-1,-1,30,34,86,-1,-1,-1,-1,-1,-1,-1,-1,-1,-1,-1,-1,-1,-1,-1,-1,84,31,89,-1,-1,-1,-1
194,190,155,153,210,172,212,154,190,155,154,192,171,212,174,175,209,-1,-1,-1,-1,-1,-1,-1,-1,-1,-1,-1,-1,-1,-1,-1,-1,51,106,49,52,52,52,106,103,104,-1,-1,-1,-1,-1,-1,-1,-1,-1,-1,-1,-1,-1,-1,-1,-1,-1,-1,-1,-1,-1,-1,-1,-1,-1,-1,-1,-1,-1,-1,-1,-1,-1,87,88,31,34,31,85,88,85,86,-1,-1,-1,-1,-1,-1,-1,-1,-1,-1,-1,-1,-1,-1,-1,-1,-1,-1,-1,-1,-1,-1,-1,-1,-1,-1,-1,-1,-1,-1,-1,87,31,85,88,85,34,85,31,32,-1,-1,-1,-1,-1,-1,-1,-1,-1,-1,-1,-1,-1,-1,-1,-1,-1,-1,-1,-1,-1,-1,-1,-1,-1,-1,-1,-1,30,85,35,-1,-1,-1,-1,-1,-1,-1,-1,-1,-1,-1,-1,-1,-1,-1,-1,-1,-1,-1,87,85,35,-1,-1,-1,-1,-1,-1,-1,-1,-1,-1,-1,-1,-1,-1,-1,-1,84,34,35,-1,-1,-1,-1
207,176,190,154,153,174,175,176,153,154,153,191,194,153,210,173,171,173,-1,-1,-1,-1,-1,-1,-1,-1,-1,-1,-1,-1,-1,-1,-1,12,13,70,16,67,16,13,13,68,-1,-1,-1,-1,-1,-1,-1,-1,-1,-1,-1,-1,-1,-1,-1,-1,-1,-1,-1,-1,-1,-1,-1,-1,-1,-1,-1,-1,-1,-1,-1,-1,-1,105,106,106,52,103,49,106,49,53,-1,-1,-1,-1,-1,-1,-1,-1,-1,-1,-1,-1,-1,-1,-1,-1,-1,-1,-1,-1,-1,-1,-1,-1,-1,-1,-1,-1,-1,-1,-1,105,52,103,52,49,52,103,52,53,-1,-1,-1,-1,-1,-1,-1,-1,-1,-1,-1,-1,-1,-1,-1,-1,-1,-1,-1,-1,-1,-1,-1,-1,-1,-1,-1,-1,33,31,35,-1,-1,-1,-1,-1,-1,-1,-1,-1,-1,-1,-1,-1,-1,-1,-1,-1,-1,-1,30,85,89,-1,-1,-1,-1,-1,-1,-1,171,173,-1,-1,-1,-1,-1,-1,-1,84,31,35,-1,-1,-1,-1
-1,194,153,190,154,210,173,207,208,176,153,210,212,154,153,192,207,209,-1,-1,-1,-1,-1,-1,-1,-1,-1,-1,-1,-1,-1,-1,-1,30,34,31,34,88,31,85,31,89,-1,-1,-1,-1,-1,-1,-1,-1,-1,-1,-1,-1,-1,-1,-1,-1,-1,-1,-1,-1,-1,-1,-1,-1,-1,-1,-1,-1,-1,-1,-1,-1,-1,12,13,70,16,13,16,13,67,17,-1,-1,-1,-1,-1,-1,-1,-1,-1,-1,-1,-1,-1,-1,-1,171,172,173,-1,-1,-1,-1,-1,-1,-1,-1,-1,-1,-1,-1,-1,12,16,16,70,70,67,67,16,71,-1,-1,-1,-1,-1,-1,-1,-1,-1,-1,-1,-1,-1,-1,-1,-1,-1,-1,-1,-1,-1,-1,-1,-1,-1,-1,-1,-1,87,88,86,-1,-1,-1,-1,-1,-1,-1,-1,-1,-1,-1,-1,-1,-1,-1,-1,-1,-1,-1,84,85,86,-1,-1,-1,-1,-1,-1,171,212,192,-1,-1,-1,-1,-1,-1,-1,48,106,50,-1,-1,-1,-1
171,212,190,154,190,153,210,211,173,207,175,175,176,153,153,210,172,172,211,173,-1,-1,-1,-1,-1,-1,-1,-1,-1,-1,-1,-1,-1,102,52,49,52,52,103,49,103,104,-1,-1,-1,-1,-1,-1,-1,-1,-1,-1,-1,-1,-1,-1,-1,-1,-1,-1,-1,-1,-1,-1,-1,-1,-1,-1,-1,-1,-1,-1,-1,-1,-1,87,34,88,88,34,85,34,34,89,-1,-1,-1,-1,-1,-1,171,173,171,173,-1,-1,171,172,172,212,174,209,-1,-1,-1,-1,-1,-1,-1,-1,-1,-1,-1,-1,-1,30,88,85,34,88,31,85,88,89,-1,-1,-1,-1,-1,-1,-1,-1,-1,-1,-1,-1,-1,-1,-1,-1,-1,-1,-1,-1,-1,-1,-1,-1,-1,-1,-1,-1,87,31,35,-1,-1,-1,-1,-1,-1,-1,-1,-1,-1,-1,-1,-1,-1,-1,-1,-1,-1,-1,87,88,89,-1,-1,-1,-1,-1,-1,207,175,209,258,298,298,298,259,259,259,259,298,259,298,298,259,259
189,190,153,155,155,153,190,190,210,211,211,211,212,174,176,154,154,190,155,191,-1,-1,-1,-1,-1,-1,-1,-1,-1,-1,-1,-1,-1,12,13,70,16,70,13,13,70,14,-1,-1,-1,-1,-1,-1,-1,-1,-1,-1,-1,-1,-1,-1,-1,-1,-1,-1,-1,-1,-1,-1,-1,-1,-1,-1,-1,-1,-1,-1,-1,-1,-1,48,49,106,106,103,49,103,103,53,-1,-1,-1,-1,-1,171,212,192,207,209,-1,-1,189,153,174,175,209,171,172,173,-1,-1,-1,-1,-1,-1,-1,-1,-1,-1,-1,48,49,106,106,49,52,106,106,53,-1,-1,-1,-1,-1,-1,-1,-1,171,172,172,173,-1,-1,-1,-1,-1,-1,-1,-1,-1,-1,-1,-1,-1,-1,-1,-1,84,34,35,-1,-1,-1,-1,-1,-1,-1,-1,-1,-1,-1,-1,-1,-1,-1,-1,-1,-1,-1,51,52,107,-1,-1,258,259,259,259,298,259,298,244,225,277,277,277,224,225,277,277,277,277,277,277,277
207,175,175,208,208,208,175,175,175,175,208,208,208,209,207,208,208,175,208,209,-1,-1,-1,-1,-1,-1,-1,-1,-1,-1,-1,-1,-1,84,85,31,34,31,31,88,88,32,-1,-1,-1,-1,171,172,172,172,172,173,-1,-1,-1,-1,-1,-1,-1,-1,-1,-1,-1,-1,-1,-1,-1,-1,-1,-1,-1,-1,-1,-1,-1,69,16,70,70,13,16,16,16,68,-1,-1,-1,171,211,212,154,210,173,-1,171,173,207,175,209,171,172,212,154,210,211,172,173,-1,-1,-1,-1,-1,-1,-1,-1,15,70,70,70,16,16,13,70,17,-1,-1,-1,-1,-1,-1,171,211,212,153,190,210,211,173,-1,-1,-1,-1,-1,-1,-1,-1,-1,-1,-1,-1,-1,-1,30,88,86,-1,-1,-1,-1,-1,-1,-1,-1,-1,-1,-1,-1,-1,-1,-1,-1,-1,258,298,259,259,259,253,253,299,224,225,277,224,225,224,308,244,225,277,224,245,244,225,277,277,277,277,277,277
292,292,253,253,292,253,253,253,292,292,253,292,292,253,292,253,253,292,292,253,292,292,292,253,292,292,253,253,292,253,254,-1,-1,48,106,52,52,49,103,49,52,107,-1,-1,-1,-1,189,190,155,153,190,210,172,173,-1,-1,-1,-1,-1,-1,-1,-1,-1,-1,-1,-1,-1,-1,-1,-1,-1,-1,-1,-1,-1,30,31,88,85,85,31,85,34,35,-1,-1,-1,189,174,176,153,153,210,172,212,210,172,172,211,212,153,190,153,155,190,190,210,211,173,-1,-1,-1,-1,-1,-1,84,85,34,88,31,34,85,85,32,-1,-1,-1,-1,171,172,212,155,155,190,190,154,153,210,211,173,-1,-1,-1,-1,-1,-1,-1,-1,-1,-1,-1,-1,33,88,86,-1,-1,-1,-1,-1,-1,-1,-1,-1,-1,252,253,253,253,292,292,253,293,225,224,225,224,308,307,224,245,244,225,241,244,245,307,308,240,277,241,271,308,240,277,277,277,277,277,277
307,307,271,271,308,271,308,271,271,306,307,307,307,307,306,271,308,306,306,307,271,271,271,308,308,307,306,306,308,308,291,292,292,292,253,292,253,292,253,253,292,253,253,254,-1,-1,207,175,208,208,208,175,175,209,-1,-1,-1,-1,-1,-1,-1,-1,-1,-1,-1,-1,-1,-1,-1,-1,-1,-1,-1,-1,-1,48,49,52,52,49,52,103,103,50,-1,-1,-1,207,209,207,208,208,208,208,175,175,208,208,175,175,208,175,208,175,175,208,175,208,209,-1,-1,-1,-1,-1,-1,105,49,49,52,52,103,49,49,53,-1,-1,-1,-1,207,175,208,208,175,175,208,175,175,208,208,209,-1,-1,-1,-1,-1,-1,-1,-1,-1,-1,-1,-1,48,103,53,-1,-1,-1,258,298,259,259,259,259,253,293,308,307,307,271,271,308,271,244,245,244,245,271,308,245,307,307,244,245,308,271,308,306,244,225,241,308,308,244,225,277,277,277,277,277
271,308,306,307,306,308,308,307,271,307,306,306,307,271,307,308,271,306,308,271,308,271,306,271,271,271,308,271,306,271,307,308,308,306,271,306,306,307,307,308,307,271,306,291,253,253,292,253,292,253,253,254,252,254,258,259,259,298,298,259,259,298,298,259,259,298,259,298,298,259,298,259,259,298,253,292,292,253,292,253,253,253,292,253,253,292,292,292,253,253,292,253,253,298,298,259,298,259,259,298,298,259,298,298,253,292,298,259,298,259,298,298,259,298,298,259,298,298,259,259,298,259,259,299,241,253,253,292,253,292,292,253,292,292,292,253,292,253,253,292,253,292,253,253,292,253,292,292,253,292,253,292,253,292,292,292,253,253,316,263,277,277,277,242,227,271,306,307,271,271,308,306,271,306,271,271,307,306,308,308,307,307,271,307,306,271,271,307,306,244,245,306,307,226,243,277,277,277,277,277
308,307,271,308,306,306,306,307,306,307,306,307,307,271,307,271,307,306,307,308,308,307,306,271,308,306,307,306,307,308,306,306,271,306,307,306,271,308,307,306,308,271,308,306,306,271,308,271,307,271,308,314,315,314,299,277,277,277,277,277,277,277,277,277,277,277,277,277,277,224,245,244,225,224,306,307,308,308,271,308,306,307,307,271,308,307,307,308,306,307,308,307,306,225,224,225,277,224,225,277,224,225,224,225,271,308,224,225,277,277,277,277,277,277,277,277,277,277,277,277,277,277,277,277,242,227,308,307,271,307,271,271,307,271,306,308,306,308,308,306,271,307,306,308,307,308,308,271,307,306,306,271,271,271,307,306,306,307,314,299,277,261,263,277,242,227,271,306,308,306,308,271,307,306,271,308,307,308,271,271,307,271,307,308,308,308,308,307,308,307,307,306,271,240,277,277,277,277,277,277
307,271,306,271,308,271,271,308,306,306,307,271,308,271,306,307,271,308,271,307,271,308,271,271,308,271,306,307,307,306,307,271,307,306,308,308,271,308,308,306,307,306,306,271,306,271,307,306,307,306,226,299,297,299,277,277,277,277,277,277,277,277,277,277,277,277,224,225,224,245,307,306,244,245,306,271,306,308,306,307,271,307,271,271,307,271,306,307,307,306,306,271,308,244,245,244,225,241,244,225,241,244,245,244,271,308,245,240,277,277,277,277,277,277,277,277,277,277,277,277,277,277,277,277,277,241,307,308,306,271,307,307,308,271,306,306,308,307,307,308,308,308,308,307,306,306,271,306,307,308,308,308,307,308,308,271,307,271,244,225,277,297,299,277,277,241,308,271,271,306,271,306,271,271,307,306,306,306,271,306,307,307,308,271,307,306,307,308,271,271,271,271,307,240,277,277,277,277,277,277
306,306,271,306,308,308,306,308,308,308,306,306,307,306,306,308,306,271,306,271,308,308,307,306,271,271,306,308,306,308,308,271,308,271,306,306,308,306,307,306,307,307,271,307,307,307,308,308,308,226,243,277,277,277,277,277,277,277,224,245,308,306,308,271,306,308,308,244,245,271,271,308,306,271,271,307,271,308,271,271,271,308,307,307,308,307,308,308,306,307,308,271,308,307,306,271,244,245,307,244,245,308,308,308,307,271,306,240,277,277,277,277,224,225,277,277,277,277,277,224,225,277,277,224,225,241,271,306,271,308,271,307,306,306,306,308,306,306,308,271,307,271,306,271,271,271,307,271,306,307,307,271,307,306,306,306,306,271,306,244,225,261,263,277,277,241,307,307,306,308,271,307,308,308,271,271,308,271,307,271,306,271,308,271,306,308,308,307,307,308,271,271,308,240,277,277,277,277,277,277
308,271,308,307,308,308,306,306,306,271,271,306,307,271,307,307,306,307,307,306,308,307,308,271,308,306,271,271,271,308,308,271,307,308,308,306,306,307,308,308,308,271,306,307,226,227,226,227,226,243,277,277,277,224,225,277,277,224,245,306,271,271,271,307,308,271,271,271,308,306,271,306,308,308,271,271,271,306,271,306,271,271,271,306,307,308,307,308,307,306,306,307,271,308,307,308,308,307,307,271,271,307,308,306,307,307,307,244,225,277,277,224,245,240,277,277,277,277,224,245,240,277,224,245,240,242,227,306,307,307,308,307,271,306,271,307,307,307,306,308,308,308,271,307,307,306,306,307,306,271,308,306,306,271,308,306,306,308,308,307,244,317,276,277,277,241,271,306,306,307,306,271,271,307,271,306,271,306,307,271,306,308,271,306,306,308,308,271,306,308,307,307,271,244,225,277,277,277,277,277
306,308,308,306,271,307,308,308,306,307,271,307,307,306,271,306,306,306,308,306,308,306,308,271,306,271,308,307,271,308,307,306,271,271,271,271,271,271,307,307,307,308,307,226,243,242,243,242,243,277,277,277,224,245,244,225,224,245,271,306,271,307,271,306,307,306,307,307,308,306,271,308,307,271,271,308,271,306,271,307,307,307,308,308,306,308,307,271,308,307,307,308,307,308,308,271,306,308,306,307,271,306,306,308,271,271,306,271,240,277,224,245,307,240,277,277,224,225,241,306,244,225,241,307,240,277,241,307,306,306,271,271,306,307,306,306,271,307,308,271,308,307,308,271,307,271,308,307,307,308,306,306,306,271,307,307,306,271,308,306,306,291,316,263,224,245,306,271,307,308,306,271,306,308,271,271,307,308,308,271,307,271,308,307,307,307,271,306,308,307,306,308,308,307,240,224,225,277,277,277
308,306,306,271,306,308,308,271,271,308,307,307,306,271,271,308,271,308,271,307,307,308,271,307,271,271,271,306,306,308,308,307,307,306,271,271,271,306,271,271,307,271,307,240,277,277,277,277,277,277,224,224,245,308,308,244,245,307,307,308,307,308,306,306,306,306,308,306,306,306,306,308,306,306,307,271,306,307,307,307,306,307,307,308,307,271,307,308,306,271,271,271,308,308,271,307,308,306,271,271,271,307,307,271,306,308,307,308,240,224,245,271,308,244,225,277,241,240,242,227,271,244,245,271,244,225,241,307,307,308,306,306,271,271,271,307,271,306,307,308,308,306,307,306,308,307,308,307,308,307,307,306,308,307,308,306,271,271,308,308,271,306,271,307,245,271,306,306,307,306,308,307,307,306,271,308,271,307,271,308,271,271,271,307,306,307,271,271,307,307,306,271,307,308,244,245,244,225,277,277
271,306,308,306,307,308,306,307,308,307,308,308,308,271,308,307,306,306,307,307,306,307,306,308,307,271,307,306,308,306,271,308,308,308,307,271,271,307,271,307,308,308,271,244,225,224,225,224,225,224,245,271,271,271,271,271,307,271,307,308,308,308,226,227,308,308,271,308,307,306,308,271,308,308,308,307,306,271,307,271,271,308,308,307,271,307,307,271,271,306,307,271,308,306,307,271,307,306,308,271,271,306,306,308,308,307,308,307,244,245,271,308,307,308,244,225,245,244,225,242,227,307,307,308,307,244,245,308,307,308,306,308,308,308,271,308,306,306,307,271,308,306,308,307,308,308,308,306,306,307,306,307,307,271,307,307,308,306,271,307,306,306,307,308,306,307,306,308,271,271,306,307,306,307,271,271,307,306,306,271,271,307,308,271,307,308,306,271,308,271,307,271,306,308,306,308,307,240,224,225
271,308,307,306,308,307,306,271,306,306,308,308,271,271,307,271,306,307,306,271,307,307,306,306,306,307,306,271,308,306,306,306,271,306,308,271,307,271,307,307,306,306,308,307,244,245,244,245,244,245,308,307,308,271,308,306,306,306,307,271,308,308,244,245,271,308,226,227,307,271,308,307,271,271,307,308,306,271,306,308,308,308,306,307,307,271,308,308,307,271,306,306,271,306,308,306,308,306,306,308,306,307,271,271,306,306,307,271,306,271,308,306,271,271,307,244,306,306,244,225,241,306,307,308,271,271,308,308,307,271,271,306,307,308,306,308,308,308,306,308,271,307,306,271,271,306,271,307,308,306,307,307,306,271,307,271,271,308,271,308,271,271,308,308,307,308,307,307,271,271,307,308,271,271,271,271,271,308,306,271,306,306,306,307,308,306,308,306,307,307,306,307,307,307,306,308,308,244,313,243
306,307,271,271,271,307,306,306,307,306,308,306,308,271,306,271,306,306,307,271,306,306,307,308,307,308,271,271,308,271,307,307,271,306,271,271,271,306,271,306,308,271,271,271,306,308,307,308,308,306,306,308,306,306,306,271,306,271,306,306,307,271,271,306,306,308,244,245,307,271,306,307,306,306,308,307,307,307,307,308,308,307,306,307,306,308,308,308,308,271,308,306,271,307,308,306,307,271,271,306,307,308,307,307,306,306,307,308,308,306,306,306,271,307,308,271,308,306,271,307,307,307,308,306,308,271,271,308,307,308,271,271,308,271,308,307,271,307,307,307,306,271,271,307,306,307,271,271,307,307,307,306,271,307,307,307,307,271,306,306,308,307,308,306,306,271,306,271,271,306,306,307,271,306,308,307,307,306,307,307,307,306,306,271,308,308,306,308,307,308,271,306,306,307,271,271,306,308,240,277
